ply
format ascii 1.0
element vertex 1030
property float x
property float y
property float z
property uchar blue
property uchar green
property uchar red
end_header
1643.913185 52.103223 2908.477841 59 86 82
1017.539999 -595.520607 2874.697599 139 222 223
1802.782060 -11.129622 2937.338608 56 77 75
1493.197480 -508.152077 2787.291846 39 100 105
1493.197480 -508.152077 2787.291846 39 100 105
1016.746963 -802.020032 2998.915797 67 34 13
1825.507969 -317.364104 2850.855025 46 106 112
1979.149484 -50.693461 2996.271177 177 172 225
1096.360999 -815.651010 2974.723413 25 15 17
1521.918703 -678.757540 2829.932398 169 192 206
1488.434832 -713.388173 2934.013040 139 223 223
1967.668803 -230.095994 3055.928666 82 59 144
1996.171122 -184.888137 3079.528121 108 90 181
1964.107699 -351.633404 3011.892684 67 54 144
1926.158008 -447.533256 2959.905573 27 114 128
1757.437557 -651.521247 2920.193594 119 213 216
2052.270719 -185.214009 3171.381171 62 86 91
2020.988419 -270.358202 3113.752318 77 55 139
1954.092208 -480.251865 2990.318514 26 88 99
1958.999347 -477.115396 3004.755251 208 196 202
2022.082900 -374.908529 3074.691710 80 84 119
2052.802609 -404.344691 3114.165689 56 118 129
1925.553888 -675.307750 2925.823234 168 162 160
1885.087638 -750.642342 2891.433461 179 166 159
2023.108233 -615.312980 2946.871510 120 110 112
1353.612405 -1024.172590 3310.671589 142 222 223
1307.672352 -1081.531004 3318.170457 55 98 106
1283.076469 -1116.030835 3316.379533 188 193 194
1284.687952 -1111.947492 3352.209807 43 94 104
2123.977213 -359.671873 3514.974084 146 147 153
2018.039251 -309.915867 3959.580560 97 65 56
2003.188720 -298.118507 4008.118887 122 69 57
1971.274456 -357.409454 4056.910381 119 73 65
1839.835480 -914.150518 3459.838891 68 172 197
1879.733880 -883.291996 3542.798157 34 68 85
1571.695473 -1111.185228 3837.773568 130 193 219
2160.540109 -457.923180 4020.663424 129 67 59
1816.109422 -668.832045 4310.432815 148 94 85
988.575334 -1229.792431 5137.139889 179 107 91
1787.823583 -765.939509 4446.874177 135 81 75
-327.105165 996.027519 2668.407411 146 60 39
523.514023 969.406024 2656.685247 118 34 9
-220.173635 902.357363 2739.978257 190 86 50
-292.651472 878.190981 2757.077939 202 96 57
335.299249 924.515730 2706.640252 223 115 78
-14.059837 938.274912 2797.368670 170 80 47
-248.851671 855.829001 2785.410937 166 70 36
-287.496445 816.607944 2843.154683 187 89 63
-515.716559 755.614454 2922.552537 212 108 73
-400.437809 725.139775 2900.557948 168 65 29
-930.266762 732.061451 3007.584346 127 33 6
914.313698 927.348114 2798.676782 165 81 53
1044.382643 949.740238 2800.435672 151 66 41
130.422764 783.781306 2875.044627 221 99 50
443.494060 891.834759 2889.430449 188 88 51
977.891269 919.551119 2833.750839 174 83 51
977.891269 919.551119 2833.750839 174 83 51
-645.305024 710.208049 3058.231988 171 79 44
1065.564171 887.333968 2835.661393 183 84 50
244.769254 749.736262 2987.170671 108 25 0
992.545369 819.696601 2904.087504 147 60 36
1017.929646 809.032809 2924.053816 163 75 45
1043.064613 782.421556 2934.180071 151 53 14
1043.064613 782.421556 2934.180071 151 53 14
1021.683792 785.947663 2957.472669 191 80 28
1021.683792 785.947663 2957.472669 191 80 28
963.003432 767.610501 2965.169200 174 61 4
1047.758484 718.460666 2964.393323 197 77 16
1214.546382 667.198388 2929.987234 210 93 36
1171.648637 619.102762 2967.919550 169 67 8
1154.037256 90.380149 2644.655603 216 169 129
1227.533948 -14.350933 2624.181002 113 142 117
1576.783146 192.488011 2814.358048 230 182 154
1641.847681 248.467326 2838.236496 82 73 48
1619.226286 241.332728 2847.937558 187 132 107
1623.753035 237.779620 2844.388581 187 132 107
1605.046863 135.942526 2825.583093 180 162 161
1645.975760 156.416843 2860.177015 150 168 184
1598.626103 122.734945 2861.323358 172 217 230
1130.161360 -437.677747 2764.009066 92 164 181
1155.079396 -466.999527 2730.756207 141 183 194
1737.552115 179.491347 2969.320527 39 86 94
1051.900878 -512.820145 2758.528974 132 184 209
1154.790476 -469.731658 2747.227916 124 187 199
1036.515401 -537.601432 2757.852396 215 225 231
1075.014066 -492.630692 2776.560288 184 228 244
1283.341431 -409.636995 2752.444482 125 226 228
1028.767261 -526.800633 2790.863523 168 219 232
1370.357463 -464.863620 2739.007185 151 229 228
1396.044515 -498.161781 2715.287772 171 172 164
1396.044515 -498.161781 2715.287772 171 172 164
1394.605204 -504.274611 2717.708971 220 216 210
1526.493264 -546.505240 2709.859219 139 153 151
1874.378504 -204.565033 2830.055811 144 121 106
1880.144199 -263.007340 2797.249645 53 83 82
1885.365110 -265.986142 2792.596979 53 83 82
2008.126714 -106.765400 2881.027479 54 62 60
900.168479 -666.215100 3071.510109 103 142 116
1999.058379 -119.827609 2884.452459 192 186 199
1538.850746 -594.763484 2784.877231 134 183 201
1506.370002 -553.305636 2859.039662 0 114 131
1476.319937 -643.969528 2798.467492 167 208 223
1854.966645 -341.265481 2832.841716 45 106 116
1513.316711 -597.589823 2819.979398 85 159 180
935.758570 -797.736431 3048.557698 67 34 13
1407.000155 -651.319777 2864.302613 175 226 242
1972.421311 -258.330408 2890.660365 80 65 160
557.915845 -894.493790 3273.368415 213 198 183
1470.394907 -657.745246 2868.770595 204 227 242
1030.952271 -794.018134 3062.280722 115 157 169
1018.662938 -809.989965 3084.121361 144 197 213
2072.035832 -236.094430 2985.751005 108 90 181
1455.067722 -719.374099 2984.897270 151 183 178
1528.683330 -703.531207 2984.094432 56 122 127
1742.412978 -684.830270 2933.489724 32 127 135
1931.467074 -587.299046 2888.594731 54 129 143
1826.684058 -686.311788 2911.904533 78 119 108
1398.843755 -856.779171 3113.800581 205 235 250
1772.847531 -742.799874 2914.213699 147 166 166
2104.800139 -404.537274 2994.044115 54 111 125
2086.095602 -414.072478 3006.071510 79 81 93
1860.349825 -696.382280 2900.702514 211 183 153
1794.288920 -775.335450 2912.753946 203 177 152
2006.576825 -618.451173 2900.844997 182 149 133
1069.080117 -1115.394890 3447.008661 224 198 174
1100.340843 -1176.296507 3429.236351 186 222 217
2117.005196 -388.175532 3319.887078 30 56 63
2106.639294 -470.377243 3242.848216 89 106 115
2138.351128 -370.790272 3347.423943 90 83 87
2123.519764 -342.904217 3396.624800 61 60 62
2069.909452 -545.721911 3244.528402 155 181 197
1153.741291 -1221.234470 3454.084210 146 150 152
2089.639204 -527.953636 3260.264275 165 184 198
2125.490929 -531.794999 3215.741741 149 177 196
1124.596814 -1254.723320 3465.804256 251 224 211
2150.189290 -528.896139 3253.037643 176 216 235
1176.391220 -1193.281314 3545.699276 49 116 132
1227.342817 -1249.961079 3455.232703 218 224 230
2156.442689 -401.891588 3488.667885 77 143 158
1203.239666 -1223.313615 3629.201886 105 196 209
1501.721217 -1116.702442 3419.885398 149 223 225
1940.511161 -255.273103 4040.374686 105 106 96
1862.188326 -248.123415 4197.743315 106 106 94
1895.201828 -293.484636 4301.953100 111 53 41
1668.471835 -271.134079 4689.459330 143 89 81
1702.162577 -286.173679 4624.029786 143 89 81
1311.638529 -428.109764 5137.153094 108 54 42
1153.421777 -456.713689 5429.046174 152 99 89
199.593315 -1559.964638 5311.680733 161 75 50
164.915820 -1509.080698 5475.093909 167 89 72
1370.647559 -1123.983426 4176.231895 139 192 216
1425.883607 -1105.412650 4141.670250 128 166 188
284.763458 -1551.243588 5330.466455 152 74 53
1879.527296 -453.418186 4437.301770 140 84 79
1408.363631 -1141.172720 4144.559304 115 160 189
1916.320156 -435.721687 4442.774144 122 60 51
841.078249 -943.567376 5477.875456 165 103 92
1200.047071 -584.024986 5441.730897 120 71 63
1353.571812 -636.488557 5172.312871 148 97 87
1603.862713 -557.923922 4911.585200 160 104 93
765.296517 -1142.988917 5476.148824 165 89 71
1559.549146 -514.949213 5131.095233 118 63 59
1076.443343 -847.113636 5463.392731 141 81 69
1130.088380 -761.173773 5549.342744 147 95 87
1537.521623 -527.715402 5359.680017 73 22 22
1733.550156 -602.815396 4907.654717 127 66 57
764.791762 1073.278648 2474.630424 184 84 55
977.815405 1016.314116 2536.060839 240 128 82
1027.711345 1039.811863 2571.378128 180 83 57
1057.412555 1024.525081 2590.292174 175 78 50
998.066020 1005.750761 2617.253809 213 107 70
768.809874 996.766130 2805.614797 174 82 52
1305.526610 731.551709 2871.034311 143 50 27
1316.586229 708.990474 2906.600147 134 44 19
1312.660658 675.719310 3018.829902 138 62 44
1655.833634 160.104047 2855.890124 196 213 226
1712.007905 233.434668 2902.308729 172 174 185
471.799362 -595.951123 2995.557339 130 205 204
987.458589 -676.920119 3079.575636 114 200 201
939.154699 -817.859389 3006.800351 127 215 225
954.683068 -839.228752 3030.348268 150 210 210
954.683068 -839.228752 3030.348268 150 210 210
1538.465411 -575.642331 2851.054983 34 141 157
1231.801081 -1188.256091 3383.690880 176 180 188
1840.767438 -842.853222 3074.989713 162 243 255
596.650166 1016.426360 2771.278873 151 75 56
-1010.713858 843.736689 2993.619624 164 65 30
1039.860268 942.192678 2810.613307 162 76 50
716.385279 888.512150 2938.044039 223 103 51
687.004927 842.036508 2970.509002 188 68 10
636.362111 123.368313 2690.835099 177 109 80
1338.736255 -53.251165 2619.328838 47 110 113
1559.892864 146.458685 2821.708947 159 180 187
1663.999124 182.688798 2841.676349 207 179 171
1670.832918 176.732309 2852.042846 195 184 188
326.300374 -578.549477 3004.886554 117 145 122
363.436694 -648.409011 2956.187223 229 213 199
442.309892 -641.403860 2972.428486 170 179 181
1143.128313 -464.206998 2779.481054 17 142 169
439.300702 -675.678725 2971.631457 228 208 191
1071.497275 -514.463433 2785.051768 176 224 238
1033.609978 -540.804153 2784.296446 159 204 217
462.264262 -659.368030 2987.073559 137 178 192
460.479004 -659.721092 2987.944833 137 178 192
472.762469 -698.255988 2991.157824 108 159 176
462.028551 -811.265419 3027.267123 180 213 233
462.028551 -811.265419 3027.267123 180 213 233
462.028551 -811.265419 3027.267123 180 213 233
447.552785 -779.872613 3073.029145 132 197 210
2006.381005 -105.107700 2883.786136 60 64 59
1588.965172 -585.388507 2721.827465 122 137 142
885.603037 -823.225023 3057.553600 26 15 10
514.527922 -900.090138 3305.765221 218 201 185
912.509337 -855.075876 3081.704713 178 213 222
2032.472370 -269.230206 2979.670908 86 59 145
667.446661 -988.484964 3321.971227 70 146 164
1502.682417 -702.670213 2964.816626 151 178 174
2046.946659 -324.544162 2996.848548 79 53 138
562.609294 -1042.679314 3489.641018 42 131 154
1918.812546 -509.270853 2959.504313 45 107 118
1962.298058 -651.685150 2886.339250 198 161 141
1067.256600 -1086.529319 3452.741400 244 218 202
554.573518 -1346.617726 3714.008325 210 204 199
1036.096314 -1121.018922 3480.391034 228 200 175
542.268017 -1391.817652 3757.977098 178 202 215
1137.400366 -1154.541574 3458.521370 238 223 218
597.579070 -1403.846734 3776.041409 209 211 218
1147.601878 -1202.507130 3484.608161 225 206 197
2023.440579 -528.226869 3437.509633 77 172 198
1600.221125 -1099.365266 3341.547824 91 204 225
1816.048420 -947.557034 3533.028987 98 123 143
1402.436828 783.888876 2531.598497 166 85 66
444.187435 937.336938 2633.843076 112 25 0
472.484737 914.498086 2624.532298 114 26 1
1333.342051 876.282577 2663.754462 171 84 58
1493.601622 750.157563 2608.587466 226 111 69
1107.723159 950.323631 2839.515787 176 78 44
398.480751 1143.536680 2997.363225 132 43 12
1568.273400 657.163088 2648.087184 246 123 70
1582.240430 642.702584 2639.438503 246 123 70
70.993566 1350.506298 3174.448434 218 100 49
1506.546253 718.126929 2721.590034 159 73 55
1153.853853 846.066517 2830.318257 227 107 52
345.705881 1244.081846 3157.268225 132 38 0
403.966770 1166.765486 3112.984614 229 107 54
-592.462994 1129.579786 3193.713222 238 122 72
788.830380 980.014904 2991.362749 207 95 49
1438.726387 757.958346 2819.582148 146 62 40
442.834363 972.841303 3071.983516 206 93 40
-61.797409 673.150700 2958.442822 195 98 70
-102.769922 867.579233 3086.402671 152 61 24
295.423784 1073.430125 3177.696471 170 70 25
1312.337321 787.040106 2904.738422 195 87 54
216.177991 494.364593 2843.356883 202 104 74
1298.670892 864.444563 2957.073305 162 69 44
1233.179919 754.352169 2903.518313 160 71 50
181.799865 465.355264 2841.149793 175 81 52
310.472271 1031.677811 3185.895427 173 74 30
266.179554 468.117601 2855.087283 222 151 108
762.127239 881.351720 3095.834835 185 69 12
673.890975 922.042437 3135.779948 199 86 30
385.370032 281.453958 2782.937581 218 184 155
886.338186 866.386292 3104.211938 128 27 1
771.976191 895.819621 3140.787363 207 87 22
457.748438 269.505986 2784.718253 101 115 103
505.350761 268.103445 2781.912352 144 137 124
421.263657 277.293346 2808.476574 98 128 120
1028.286005 189.352323 2720.929037 120 100 69
1153.061289 327.245395 2810.904339 188 145 124
1108.954606 735.726471 3095.818642 66 6 0
1030.869933 58.532037 2674.750485 94 89 64
1386.234317 259.080074 2748.809165 135 118 114
1218.249109 31.099943 2643.217819 191 148 123
1218.249109 31.099943 2643.217819 191 148 123
1257.355269 7.969391 2622.690163 191 148 123
1257.355269 7.969391 2622.690163 191 148 123
1369.690401 -38.481904 2589.423675 150 126 114
1600.697118 159.208892 2818.922983 215 215 223
1618.908277 369.860979 2999.620973 108 78 46
1624.550674 139.501234 2836.072790 177 166 170
1663.218148 162.044584 2847.230583 160 163 172
1678.597145 184.881402 2883.134900 187 200 214
1631.356865 168.701772 2885.987756 173 182 195
1685.132893 150.462146 2865.069647 212 217 227
1695.634169 131.253458 2849.647757 171 180 193
1695.634169 131.253458 2849.647757 171 180 193
1707.016678 217.519092 2914.989600 136 138 152
1686.182636 160.390801 2884.056859 182 196 214
1672.101430 178.685595 2901.923367 175 191 208
1713.629089 237.843930 2948.275117 184 191 202
1684.007336 172.639844 2914.851192 226 227 233
1680.554813 160.992798 2912.042605 146 176 195
1733.150389 243.086487 2978.190952 145 124 124
963.679768 -379.245884 2731.327366 149 179 155
1640.525029 145.052694 2939.619513 65 171 191
1067.048699 -396.326993 2705.654750 215 204 182
917.240619 -454.310736 2712.193847 234 198 168
1688.324869 178.996322 2972.124397 134 150 161
1711.795070 218.360494 2998.539433 119 136 143
1127.748207 -413.927620 2689.270038 166 164 151
1126.437517 -469.143053 2669.272740 192 177 169
1180.832830 -422.357821 2717.531916 121 178 193
1101.781057 -486.655032 2757.780691 173 212 226
1015.362136 -512.440198 2787.550131 174 206 221
977.108975 -531.893907 2793.767557 183 207 214
1042.354487 -484.678725 2809.998249 171 223 240
1034.567634 -490.449015 2815.741815 123 204 220
1171.952457 -459.951223 2809.021003 91 208 225
301.527108 -542.379225 3074.464786 157 224 223
1437.362325 -518.339102 2695.896685 182 201 201
1535.801085 -534.581562 2651.237016 228 211 200
1559.175514 -536.667032 2653.137304 149 147 141
1529.306630 -537.085525 2678.359926 233 208 198
1907.504862 -232.088543 2800.090690 54 72 70
1561.067253 -551.531949 2676.548216 226 209 200
1924.393432 -248.923197 2792.248785 62 72 64
1941.834765 -194.291855 2840.935996 178 154 169
1974.982059 -131.093138 2885.298118 199 189 217
2002.669738 -84.980668 2914.225050 103 97 215
1953.226893 -176.268599 2861.494698 87 77 176
1489.816558 -596.206316 2707.547835 232 193 164
1914.305866 -334.862404 2769.151996 74 67 189
1914.305866 -334.862404 2769.151996 74 67 189
672.494867 -592.023731 3179.235669 151 225 226
1644.510408 -582.485118 2723.495428 67 126 137
1596.104866 -616.063130 2725.713449 211 228 241
1635.531911 -612.005634 2731.611281 129 189 212
1610.308442 -612.417787 2746.111930 89 151 174
1948.147937 -318.263889 2852.992612 75 64 156
1586.667958 -585.622258 2794.753091 103 184 201
1552.509378 -624.461650 2793.067677 161 211 229
1401.829590 -658.760710 2853.344891 181 226 239
1921.077889 -387.476733 2844.462279 71 116 195
1447.319502 -662.400236 2848.776297 180 206 220
1530.866853 -578.299937 2885.026417 86 214 232
1564.921059 -638.766943 2820.225998 129 187 205
804.162883 -742.191854 3153.232566 94 113 118
881.086127 -649.579653 3210.190670 137 219 224
813.277400 -752.549423 3148.550633 90 111 113
1557.598530 -642.150718 2848.485114 113 223 234
1537.649275 -663.291017 2839.038825 164 205 219
1549.642265 -660.078410 2840.273393 108 166 181
1954.619997 -386.004181 2889.268216 30 37 140
1964.048619 -387.522637 2890.531865 31 37 142
755.878027 -806.963379 3157.604828 102 85 73
1976.395552 -360.445099 2922.559620 86 62 147
1952.417931 -425.522975 2873.812671 62 123 163
1438.911978 -651.617042 2945.527257 133 224 228
693.929125 -828.097113 3196.927449 62 45 43
693.929125 -828.097113 3196.927449 62 45 43
1163.538834 -673.705564 3094.130823 149 221 224
832.087349 -702.594883 3279.056890 107 213 224
722.445479 -832.878657 3220.475972 61 46 47
794.356384 -785.235143 3253.408444 158 206 222
2006.124898 -258.111306 3069.784164 114 88 160
772.421515 -793.366030 3285.630803 131 195 208
2017.799092 -237.726746 3102.849652 89 62 152
1413.445530 -814.600929 2985.492756 212 211 212
2021.603070 -293.152708 3138.290394 49 35 126
2018.886874 -262.979998 3172.837271 65 45 139
1739.042810 -699.608086 2894.984128 143 223 224
1398.255152 -817.200550 3004.744909 214 211 213
2009.712167 -408.308564 3044.983287 120 125 146
1773.092779 -737.432549 2883.577999 217 205 196
1791.574210 -731.801280 2883.880012 189 199 201
1892.007408 -505.192302 3118.855452 33 72 82
2037.607645 -583.991471 2935.761915 35 71 82
1363.651071 -829.218408 3192.984465 126 190 207
1818.036234 -815.071332 2887.630829 213 215 219
1941.792686 -637.151808 3006.892336 169 187 204
1888.659552 -787.240171 2893.966947 177 202 219
1987.723560 -710.407362 3039.102220 54 113 132
705.910182 -1121.746019 3730.766058 166 224 225
2046.233140 -439.350637 3386.872941 188 206 223
1711.250417 -846.383321 3183.755351 122 221 235
808.694350 -1154.692068 3687.434523 219 209 206
768.874428 -1146.058528 3736.524018 226 213 211
1951.818259 -494.220815 3490.883272 65 182 207
1917.035881 -480.256749 3561.888340 179 221 243
1917.035881 -480.256749 3561.888340 179 221 243
857.500890 -1141.620354 3753.790420 82 129 141
956.662282 -1234.731191 3744.390747 127 182 203
899.594851 -1231.972488 3824.903902 128 222 234
1269.519622 -1159.057230 3646.740337 152 222 229
1466.429749 841.954617 2717.957548 153 50 18
1403.662635 828.236351 2790.517144 157 72 53
1466.846326 815.948505 2804.146657 190 90 57
1421.282974 776.941202 2833.715857 144 62 40
1383.731139 725.884114 2948.829235 185 82 47
1565.108641 652.716689 3001.508850 183 77 38
1881.613816 -242.744427 2879.556729 40 44 149
1900.229474 -381.158080 2919.082318 43 57 173
1953.413215 -422.658392 2964.071762 43 50 159
791.191714 912.622718 2879.073627 187 86 51
1027.483889 867.205414 2929.782470 147 56 29
987.434604 866.422116 2956.220732 147 58 31
1424.773786 87.079291 2699.609475 83 103 110
1438.546834 72.773057 2689.624921 83 103 110
1683.416620 167.601170 2872.516402 153 155 168
1697.328902 163.914079 2904.408379 226 224 231
1724.892133 203.284975 2928.348979 126 116 121
1689.790102 328.988131 3076.799288 60 67 65
1670.547165 364.100603 3119.040975 62 83 84
1263.622498 -442.017705 2695.434878 39 138 159
1985.945779 -58.415796 2963.008618 115 106 227
1908.728761 -185.824305 2904.386626 51 51 163
1610.811493 -584.771110 2707.771304 128 136 142
1976.363308 -140.628557 3029.622143 97 73 177
1088.893484 -731.118214 2950.581043 182 168 152
1967.401668 -272.339925 2991.827279 54 42 138
1128.400793 -841.002674 2978.819870 211 217 225
2000.552020 -256.048788 3075.352265 106 81 163
2025.292688 -236.937157 3120.446092 82 58 151
1612.708487 -1097.620911 3855.927828 83 128 152
1641.244984 -1103.086418 3862.230428 115 138 158
1810.969983 -833.734410 4440.364056 144 86 80
423.179396 1081.837361 2441.976080 105 13 1
438.372708 1060.727781 2482.612735 166 75 54
842.956068 1099.060082 2614.610385 182 87 56
994.051300 1055.630800 2627.713014 158 65 39
994.051300 1055.630800 2627.713014 158 65 39
473.455770 1065.979353 2562.726460 136 53 28
458.723235 1080.512919 2572.092823 136 52 26
390.086560 938.236198 2523.817041 191 91 66
390.086560 938.236198 2523.817041 191 91 66
525.852118 1126.320475 2662.594778 160 81 62
897.909117 1070.305440 2700.576716 182 85 52
433.776412 833.013601 2538.815989 220 111 78
253.125204 963.420738 2727.053898 185 83 50
656.721484 1014.130709 2863.087481 179 86 54
613.749418 912.393478 2842.182680 169 80 50
1399.300286 790.557371 2803.093290 157 72 54
1400.664878 769.258654 2890.355595 160 67 42
1545.109024 88.170013 2779.933345 67 74 68
1701.918037 187.674476 2894.771198 153 166 180
1702.043234 187.494032 2894.649074 153 166 180
1742.875760 230.141087 2953.170545 142 119 122
1742.875760 230.141087 2953.170545 142 119 122
1277.533763 -425.511459 2662.979127 97 149 151
1213.599839 -492.037792 2627.965392 192 174 167
1246.613103 -461.524974 2651.031062 173 168 165
1273.278614 -460.728932 2664.612669 146 197 214
1242.715234 -486.462261 2727.388362 13 143 170
1844.424843 -252.907461 2827.903151 141 124 157
1869.065739 -224.117195 2870.662799 48 50 156
1880.086998 -231.101294 2863.544261 48 50 156
1928.312527 -165.300494 2989.976599 73 56 159
681.895969 -757.988602 2797.404409 194 181 172
1974.968641 -102.157328 3062.156451 62 57 173
728.723166 -766.118661 2810.954447 122 141 148
703.944881 -780.702265 2813.612319 210 213 221
799.127614 -728.166717 2887.001218 136 197 218
1605.890377 -611.483481 2748.928499 111 169 190
1537.039484 -651.186437 2733.695003 216 232 248
1569.472497 -661.725634 2833.883212 142 229 239
1122.674076 -830.328400 2937.654750 76 45 27
1989.727771 -409.734467 3061.802500 106 121 138
1526.309333 -816.618775 2889.831373 167 166 167
1786.434581 -722.047452 2881.040625 181 175 168
1786.940167 -722.332668 2880.601703 181 175 168
1513.536791 -865.912894 3020.807828 215 236 250
2042.248661 -516.990460 3343.818300 44 157 188
2016.061716 -509.966145 3407.489372 180 230 252
1793.282792 -891.475612 3057.761526 159 199 208
1803.819350 -892.580386 3062.410280 153 224 232
910.140117 -1383.969604 3506.633820 234 225 234
1335.619878 934.390499 2649.017486 193 96 70
1333.967667 935.624897 2720.216110 218 107 69
-73.604589 1154.796851 2572.490786 184 84 57
1391.846014 846.916633 2729.386105 191 84 46
414.297237 945.449612 2582.786488 227 111 71
290.240644 960.838938 2586.914118 191 93 69
1444.189212 885.171439 2825.524403 136 47 22
1554.990726 815.028450 2850.181407 205 87 37
-231.652436 1001.697940 2660.042603 143 63 46
1307.685814 855.026921 2856.899397 137 58 39
-404.325715 980.023217 2634.274696 142 62 45
1380.097803 788.796064 2974.783411 161 69 41
-203.537981 875.513101 2812.474110 161 72 45
-55.104395 878.352981 2853.509753 164 88 66
1270.014825 807.167981 2999.974297 181 82 51
1353.298158 762.672736 3068.479140 143 57 28
1208.194413 686.844966 3025.553127 111 36 13
1078.614117 206.491820 2798.017246 26 88 105
1545.993091 546.244624 3182.738026 145 138 150
1517.077807 535.555152 3224.066766 93 55 25
1487.532122 476.383924 3194.473529 112 131 145
722.223936 -155.782248 2668.649567 162 220 218
955.014627 -193.735063 2709.101573 157 215 216
1290.700464 21.411035 2918.892190 53 81 82
737.086634 -294.319785 2773.242870 171 223 222
819.167972 -274.321583 2830.620491 210 209 214
1554.898518 -34.493423 3042.713817 153 141 159
847.065334 -304.819032 2868.847498 78 145 169
801.301011 -340.768402 2856.116362 193 219 236
777.136087 -362.845907 2884.842242 163 215 235
773.124006 -366.524709 2911.064386 161 212 235
1606.394492 -118.470528 3104.263055 46 44 142
1433.904283 -361.846644 2916.013060 129 206 215
1763.849856 32.265344 3371.555955 98 72 145
1122.733609 -506.058659 2972.414174 152 197 218
1777.532147 8.434981 3423.600450 134 111 143
1777.532147 8.434981 3423.600450 134 111 143
139.157859 -702.732499 2984.970695 230 215 218
149.646243 -727.064762 3002.772868 186 170 166
251.828551 -674.877110 3049.667264 165 195 214
251.828551 -674.877110 3049.667264 165 195 214
216.026285 -771.909682 3081.823843 186 216 237
239.146648 -790.343560 3139.359102 146 204 220
1168.186421 -570.904756 3185.938749 67 114 113
647.365484 -728.651500 3174.120085 70 45 33
737.999682 -723.276819 3212.505550 141 192 213
714.772766 -754.077065 3192.698692 204 207 218
669.733372 -768.944197 3202.125212 68 65 73
721.367924 -734.882167 3231.188142 93 149 170
654.277164 -776.750298 3224.252046 141 214 220
1596.696412 -597.335008 3321.198314 191 228 249
1733.827892 -316.621967 3697.772482 195 233 255
1734.636986 -302.116226 3771.385171 169 208 236
409.936606 -988.760000 3482.518553 107 177 197
423.865399 -991.354173 3478.530329 107 177 197
435.886928 -996.643400 3524.992005 45 131 158
443.064450 -998.406568 3521.920136 45 131 158
446.551362 -1022.615469 3512.656074 131 195 219
450.322590 -1034.901284 3542.817950 136 222 238
440.437544 -1064.761536 3510.799303 149 227 237
1781.374010 -353.140255 3861.792939 66 139 161
1659.147528 -467.324741 3924.330808 57 134 157
966.961848 -940.509572 3660.855172 147 220 224
1539.848806 -686.844666 3821.887407 62 138 160
951.251973 -1095.395482 3623.490340 60 114 131
547.235137 -1268.870907 3730.910264 118 156 145
966.850907 -1184.312154 3679.597344 118 181 205
1049.559750 -1135.986218 3750.130842 127 217 234
1630.185163 -442.802979 4454.498035 100 99 96
1268.727342 -990.485908 3960.804559 82 175 201
877.152932 -1226.871969 3899.642949 128 223 242
1559.753079 -509.585378 4584.004751 72 24 17
1559.753079 -509.585378 4584.004751 72 24 17
1645.114582 -613.364072 4591.843076 157 102 95
1451.414678 -658.378250 4697.109712 136 83 80
1328.294873 -1075.165681 4149.737655 137 190 220
1274.810176 -1112.197905 4136.596397 110 172 206
1287.506739 -1108.596271 4149.842907 147 200 230
1432.312603 -703.382693 4730.581421 149 97 94
1334.196231 -1095.505413 4155.227977 114 158 191
1594.162305 -679.457148 4667.916225 131 75 73
1363.288555 -1103.987362 4155.599091 173 209 235
-127.195726 -1482.827941 4881.294085 154 73 52
1175.482271 -877.182486 4817.293566 135 80 73
209.764449 -1405.089363 4846.997661 164 85 72
1081.192024 -974.224894 4883.481137 157 98 89
631.858255 1139.066000 2513.797015 162 84 67
625.639008 1130.763040 2540.587814 142 66 48
1381.093431 943.726159 2706.780752 99 17 2
435.560779 1127.804871 2657.122198 81 17 3
1323.758801 857.918354 2766.691592 201 96 57
1520.203058 800.895669 2835.527500 156 60 35
1486.551706 799.852909 2874.840213 217 111 71
1486.551706 799.852909 2874.840213 217 111 71
1330.550740 223.254839 2829.356678 147 77 47
1483.640674 286.053801 2974.713667 146 196 219
1031.568331 -227.335310 2677.129333 119 211 222
1727.782082 -34.657464 2996.926579 70 79 84
1729.275658 -41.500133 3004.941803 160 149 175
1687.333455 -107.449371 2950.551210 61 83 88
866.432936 -378.322201 2726.937481 204 184 174
1834.754186 73.204889 3113.766711 172 171 235
1802.727861 4.871111 3117.389657 81 76 199
1833.066856 14.324727 3185.921683 56 52 166
1881.426070 -37.659251 3286.059796 52 59 74
357.933386 -556.819740 3014.308670 40 105 115
1854.950570 -151.258154 3262.390759 71 53 143
1740.211568 -323.129724 3119.858330 52 59 184
373.403255 -669.300226 3042.716201 134 195 222
368.075260 -736.975349 3006.828479 126 182 209
754.362830 -790.388031 3098.551983 113 206 223
1806.392102 -521.101274 3147.706689 116 125 141
1317.613438 -737.403298 3177.822141 112 195 219
1252.860922 -798.048929 3129.559491 185 203 219
1247.414619 -792.225424 3147.678576 146 182 205
1196.695586 -1073.773697 3568.901756 142 218 225
793.651968 1166.901098 2621.291654 160 75 50
1520.458050 892.814857 2844.226324 229 115 70
1793.992940 634.083182 2866.405076 197 101 73
308.375098 1144.886671 2708.844628 107 33 15
1413.427928 802.936938 2895.418346 191 85 50
1930.990657 518.552794 2955.495765 207 107 75
1215.327680 774.256188 2909.689044 144 65 46
1778.074783 566.520687 3009.539307 173 83 55
1952.021450 498.157216 3017.561056 156 75 54
1793.680074 547.963943 3127.201210 175 85 57
1859.474033 554.552501 3151.744398 114 45 30
1859.474033 554.552501 3151.744398 114 45 30
1994.943493 436.396009 3132.228015 149 77 60
1677.343605 558.198339 3224.416532 170 85 58
1712.520177 375.061455 3093.663295 147 155 168
1699.955408 181.723806 2958.526039 126 126 141
1713.130468 559.204204 3270.951371 168 81 54
1647.497930 158.299746 2951.766894 138 162 187
1752.687564 529.499478 3278.588353 163 77 50
1675.501827 496.168091 3278.494527 95 36 19
1681.897674 489.181786 3275.548162 95 36 19
1750.397400 435.064725 3304.603226 94 37 18
1638.901931 458.732997 3318.029435 77 50 33
1893.310831 -109.514092 2977.455740 59 86 93
1831.460053 324.027547 3418.160673 76 57 42
1825.411082 -328.434266 2872.293331 197 190 206
1959.020211 -157.619116 3099.329862 86 69 175
1858.534444 -312.789687 2973.544012 49 44 146
1116.787536 -541.762804 2738.992003 187 221 245
1116.787536 -541.762804 2738.992003 187 221 245
1473.698452 -533.786939 2827.569288 13 87 97
1111.710785 -561.437702 2793.680146 152 212 237
1530.549637 -636.152497 2845.433939 60 139 167
1529.007550 -660.903633 2835.930577 144 200 225
1562.021880 -645.596397 2859.775721 91 182 208
1957.179555 -436.657328 3146.438373 96 122 144
1967.410202 -409.393255 3195.525596 84 109 128
536.189294 -670.548954 2982.963908 152 201 223
1066.038862 -790.445805 3043.065224 107 162 175
1060.953662 -818.131654 3043.644596 117 151 166
592.042737 -876.915819 2986.062546 146 181 207
592.042737 -876.915819 2986.062546 146 181 207
519.477492 -921.148585 3021.606535 75 201 219
519.477492 -921.148585 3021.606535 75 201 219
1898.813440 -777.959607 3171.160955 34 84 105
2119.540399 -416.216909 3596.512532 96 92 104
1049.716907 -879.410006 3113.055654 111 177 199
2099.500665 -418.678756 3620.685075 142 148 167
1414.161360 -875.278826 3198.927606 135 219 229
875.153988 -963.410780 3292.771492 143 216 225
738.436101 -1101.261139 3244.011864 143 165 182
1212.045112 -1171.985635 3364.959717 220 218 222
1260.191889 -1166.272451 3436.008989 70 123 139
1280.482594 -1261.587541 3339.336939 162 218 223
1820.124039 -1036.003470 3558.937246 84 201 228
1276.973868 -1263.049140 3386.829953 162 171 181
1369.882424 -1222.715627 3470.394829 78 204 228
1882.829209 -916.142619 3775.378658 136 151 176
1890.438109 -1049.221273 3591.124713 94 105 125
1361.338479 -1189.079674 3559.922018 72 199 224
1275.409920 -1268.749747 3476.753521 162 209 238
1250.121983 -1242.324688 3531.353698 140 217 234
1229.216118 -1271.472105 3546.688371 161 224 232
1754.912612 -1079.064696 3725.002281 79 163 193
1761.730343 -1082.413981 3720.252961 79 163 193
1117.006325 -1298.148772 3615.131115 156 207 206
914.157156 -1360.793503 3664.998141 7 93 117
914.157156 -1360.793503 3664.998141 7 93 117
1593.423589 -1075.843880 3896.837299 79 173 204
870.044017 -1432.407100 3619.047045 187 200 213
957.972353 -1447.343304 3623.588641 202 195 196
1661.212983 -748.731464 4427.490003 145 95 93
1831.733731 -769.838067 4378.181622 151 98 94
953.120649 -1447.825224 3676.998111 129 161 190
1775.781391 -797.243254 4448.692420 147 94 91
1138.953023 -1227.011865 4062.048623 56 121 153
1806.459436 -812.937374 4453.962325 125 74 71
1301.481006 -898.150924 4538.951049 122 74 68
1022.408953 -1253.180924 4130.177206 189 211 237
1276.468032 -911.539845 4599.947298 112 64 60
1026.925584 -1264.099257 4149.355042 191 106 85
1026.925584 -1264.099257 4149.355042 191 106 85
1220.249159 -933.147507 4627.581149 148 93 86
1220.249159 -933.147507 4627.581149 148 93 86
-954.316474 -1503.514385 4715.863223 209 100 73
1528.883592 -873.637866 4622.459768 150 95 91
1788.094872 -861.694193 4540.260696 131 80 78
1330.140340 -947.376375 4626.856342 151 93 81
1295.500893 -957.950639 4636.419894 131 74 63
1295.500893 -957.950639 4636.419894 131 74 63
791.936918 -1084.679554 4722.487292 139 75 66
-45.602692 -1318.654859 4752.334965 214 106 75
1537.819097 -943.974970 4664.820255 154 95 85
1537.819097 -943.974970 4664.820255 154 95 85
809.618045 -1123.386515 4727.717095 175 98 83
-662.541739 -1535.932096 4813.332719 181 98 81
-724.094444 -1584.282833 4790.894679 226 117 85
1357.826970 -1004.352988 4713.236989 165 103 95
1384.838364 -998.969633 4710.626666 130 74 70
1217.156716 -1048.188422 4728.387470 137 78 69
48.268570 -1344.364339 4833.221198 170 86 68
-194.113867 -1441.799484 4826.279580 183 93 77
-620.812259 -1559.750924 4849.518465 130 45 28
-669.673195 -1600.624221 4849.968004 99 16 1
-289.071947 -1505.048554 4839.027405 134 55 35
-289.071947 -1505.048554 4839.027405 134 55 35
1162.216516 -1097.064242 4774.669427 144 84 80
-614.700546 -1657.669531 4888.533691 126 45 29
516.367178 -1253.857862 4961.647434 183 103 86
-534.696432 -1653.966104 4869.697412 148 76 65
787.445724 1113.973836 2566.618430 158 70 50
1779.385671 -314.233728 2885.825639 53 86 94
1473.882784 -619.105162 2779.958116 214 194 190
1883.214859 -438.125743 3033.145915 47 57 193
2029.381542 -243.506908 3241.787686 58 44 146
1504.462332 -667.255057 2809.160909 190 227 253
2033.015074 -476.494157 3424.139876 150 179 206
2073.915991 -425.452105 3602.405439 101 89 105
1717.511274 -931.591058 3169.773965 150 188 213
640.471737 -905.617080 3301.738698 68 184 211
158.376083 -958.565692 3330.506588 69 193 217
750.081474 -1107.215042 3295.192393 96 150 181
788.432852 -1430.213606 3631.716640 221 226 245
1823.108860 -766.628149 4385.698197 150 98 98
1508.023730 -900.310390 4624.305399 148 95 97
994.945741 -1008.631596 4711.215902 139 75 63
-146.418215 -1355.667153 4776.106167 206 103 79
743.434260 -1144.105152 4817.138732 134 72 67
-673.426926 -1655.909547 4804.014577 173 91 83
1380.378483 939.476256 2718.098666 118 33 15
1100.445977 1002.146237 2621.118114 206 110 79
1434.818224 882.925494 2719.028143 144 58 37
1594.548182 808.724832 2774.639366 174 79 52
1382.265546 888.346823 2717.695297 210 108 75
1042.128477 1003.778684 2616.405108 149 64 46
1561.533130 821.867029 2776.561579 200 99 74
1444.577020 810.805158 2775.548718 145 69 55
1724.017901 658.575102 2827.809929 216 110 75
1480.650529 801.326805 2804.335114 177 84 62
1531.480436 789.939880 2833.691282 155 63 38
469.376081 961.414853 2448.290095 210 107 77
766.314449 1030.667599 2676.336890 142 70 57
478.498902 943.827666 2506.950219 212 106 76
1750.942691 609.622892 2918.140039 177 81 51
513.145470 1054.790607 2646.126950 84 23 13
1107.968859 856.174365 2811.914881 144 69 48
1472.629706 733.628805 2907.368085 154 63 37
1954.294681 501.441901 3039.158794 189 96 73
1697.843274 621.279692 3007.064473 172 85 58
1532.361911 675.349823 2970.608109 184 84 56
1659.436164 639.399790 3007.756037 145 56 29
1659.436164 639.399790 3007.756037 145 56 29
1949.055060 537.389373 3074.003814 125 63 59
1690.938335 639.858262 3057.532163 143 58 31
1928.673061 526.691223 3095.679632 119 61 56
1680.073348 622.512513 3073.756923 192 92 63
1921.575007 490.946239 3095.554813 93 23 10
1922.497954 507.958745 3110.428471 114 53 46
1693.077735 596.170517 3096.803930 179 86 60
1731.022726 578.053427 3165.611855 142 67 52
1911.965446 495.465232 3193.111801 114 42 28
2068.117136 449.177344 3253.460599 154 82 72
1730.799910 555.422167 3192.564087 179 89 65
1674.220434 551.702932 3185.543242 122 42 18
1708.279178 202.869068 2977.130600 131 136 161
1702.368970 503.666969 3222.690979 144 69 50
2065.954696 381.805355 3293.337630 139 72 62
1217.429087 -60.722699 2618.169944 181 92 72
1505.579072 136.691189 2892.625081 39 117 143
1905.931194 402.159332 3319.445108 112 51 36
2107.790586 340.068569 3391.484893 151 81 68
1973.070095 333.812012 3339.986938 136 71 57
2113.888474 301.261447 3396.274841 118 48 33
1795.033913 -297.963137 2902.748623 87 79 210
1830.099105 -335.762682 2951.150621 38 43 157
1961.430688 -117.138446 3206.146869 83 64 160
1380.144034 -432.708410 2744.336837 164 221 230
1295.626066 -417.723316 2732.142007 161 219 227
2029.820872 175.693750 3508.074704 141 79 71
1983.427184 186.337723 3502.808834 93 46 38
1948.346741 212.005529 3523.619728 60 28 22
1099.110259 -456.272647 2718.613005 222 201 193
1147.379688 -451.379357 2744.624590 138 189 214
1138.815154 -450.378343 2773.609417 92 161 194
2020.621956 83.519748 3522.175035 82 72 66
1445.009167 -563.267064 2775.736378 228 220 223
2009.272274 -249.172621 3230.184042 54 41 146
2030.502998 -220.743663 3272.976719 134 129 153
2030.502998 -220.743663 3272.976719 134 129 153
2021.811588 -235.198101 3266.543450 119 116 153
1954.710594 -311.203820 3189.961984 38 33 132
1987.135343 102.761263 3567.347471 80 72 68
1152.363023 -517.335401 2774.127883 120 187 219
994.889047 -526.691291 2722.020543 219 219 236
1893.592600 -452.936834 3072.648684 63 61 193
1092.752701 -518.198849 2779.500118 159 214 247
1409.332875 -595.798655 2815.693123 212 203 214
1957.017006 -263.717962 3283.288626 120 111 131
1907.161122 -466.628367 3086.094085 56 54 174
1924.909934 -406.826676 3154.506117 118 146 173
1954.994254 -221.648201 3332.383468 133 134 154
1935.432928 -301.140237 3262.655008 116 115 136
1951.908266 -368.341287 3215.268115 73 76 95
1907.176195 -486.541240 3096.231353 192 187 210
1442.604721 -649.784216 2820.374468 193 226 251
1019.033485 -563.409686 2785.690929 164 192 215
1432.234895 -669.907271 2822.997568 195 231 254
1486.853178 -645.008147 2868.816016 132 194 228
1346.574790 -663.074674 2880.989619 144 199 227
1859.964472 -517.684832 3194.260170 27 69 84
1317.349826 -683.708265 2934.873999 150 204 230
356.313831 -588.486280 2859.285893 74 199 225
481.360841 -645.039572 2876.315821 165 220 227
2031.553137 -443.300094 3437.376480 85 99 116
619.290383 -627.527238 2942.361237 156 214 223
540.856815 -614.863607 2944.893279 152 202 204
1993.184380 -469.638588 3431.536747 129 162 188
1541.310630 -753.561965 3050.671502 133 192 215
1493.998929 -761.842562 3049.180246 188 230 254
1479.012887 -792.982713 3043.175469 189 213 234
503.683326 -709.977404 2926.686393 154 150 152
966.925215 -710.059911 3024.600966 134 213 223
490.736082 -755.345135 2881.598264 148 210 221
1967.380145 -547.666292 3405.429966 46 126 151
1401.179527 -813.101761 3021.943258 146 174 196
1990.391177 -498.710747 3480.521023 169 220 249
1926.186845 -547.878025 3427.970927 128 184 215
2067.600652 -332.196737 3679.750178 56 74 86
1945.850460 -494.421316 3492.974821 3 128 167
1497.674341 -782.053358 3112.011000 3 125 155
1843.219461 -737.131977 3230.664511 50 144 174
523.514303 -789.883104 2917.080774 199 211 230
1856.861717 -749.529994 3224.918776 50 144 174
2082.899681 -400.175385 3635.442687 134 145 167
574.316912 -781.522050 2952.207818 140 192 217
1997.941483 -486.321559 3539.458832 151 202 235
999.490008 -780.602247 3071.637696 111 156 178
567.110823 -807.397881 2984.256534 104 171 202
1471.136221 -823.395246 3137.855937 2 117 143
1964.561869 -534.106859 3538.237064 121 206 241
555.486951 -848.311079 2967.719209 163 210 242
1057.876522 -800.491460 3110.957771 99 178 207
983.632244 -731.800130 3174.707087 71 203 233
564.471387 -838.751389 2993.787617 148 194 226
1436.216004 -846.470096 3147.816251 79 170 205
1040.398714 -799.521540 3138.150499 86 174 204
1037.449514 -841.875465 3097.308137 48 111 146
543.084686 -872.512767 2981.348662 177 215 244
1447.821810 -860.906871 3158.800069 110 197 224
536.608116 -888.458272 2980.949205 170 197 223
983.391823 -884.310228 3076.370922 44 38 51
1991.367034 -625.115191 3668.690746 56 136 165
694.698841 -992.156328 3222.399712 134 171 189
739.900897 -1027.633567 3297.206873 81 162 191
731.973965 -1143.948660 3320.919025 150 198 223
547.355881 -1147.866156 3337.424371 169 224 235
1236.684267 -1160.482609 3433.346065 34 92 111
1239.335697 -1184.788545 3411.324507 154 177 190
1826.748591 -552.411004 4232.444192 90 100 99
1254.891239 -1201.528076 3397.839529 223 212 213
1857.048242 -1072.239065 3589.492022 151 189 217
1857.005224 -574.259486 4231.303068 117 81 76
1831.837244 -1083.455510 3588.627324 172 195 223
1274.800630 -1263.869210 3385.754122 158 171 186
1805.021595 -643.513402 4263.009201 100 112 110
1805.021595 -643.513402 4263.009201 100 112 110
1393.307227 -1242.538736 3521.195990 109 212 237
1754.576187 -632.897808 4364.388565 140 92 90
840.108590 -1326.241206 3583.294709 119 159 150
1641.574427 -718.460607 4427.900153 114 73 72
1645.411817 -734.831061 4452.783731 144 96 95
984.898978 -1357.516725 3642.814092 88 190 217
1577.773365 -746.239296 4463.714885 116 73 72
-1306.098807 -1067.242426 4365.804388 166 68 40
1544.665031 -1165.032955 3913.208550 111 185 223
1704.332736 -771.014456 4490.969889 119 72 73
1542.920036 -1189.817623 3913.834353 98 164 203
1799.165781 -829.436317 4452.934828 147 96 96
1126.586427 -1248.848434 4048.090754 164 203 233
1246.714854 -901.549190 4581.081213 133 84 82
1623.698681 -887.036776 4582.624176 124 76 74
1353.773736 -908.243261 4610.552334 135 86 84
1053.687747 -911.345700 4677.557988 127 72 64
1381.280652 -932.841774 4603.995705 120 71 69
1366.963853 -922.300121 4640.912467 145 94 92
1588.556044 -934.348953 4601.768183 138 83 79
1103.172249 -991.600931 4637.561542 153 93 87
1227.822340 -954.589682 4677.583775 152 94 88
964.818229 -973.759129 4715.592350 152 92 86
1566.676182 -941.119941 4644.505462 155 99 94
-204.207612 -1181.071769 4657.767513 164 83 66
1313.448921 -970.534836 4666.590178 131 77 76
1541.252964 -949.167603 4656.027567 153 97 92
1213.735437 -971.600025 4692.047713 134 78 72
1126.341421 -1008.702299 4670.343432 140 80 72
856.238267 -1042.085098 4722.672769 124 65 60
138.644661 -1172.478240 4682.714774 198 103 83
-137.178840 -1205.829782 4697.577733 212 108 79
1289.768020 -1009.636787 4728.729660 157 99 94
315.619713 -1125.287108 4786.812422 197 107 87
-161.850820 -1247.851267 4733.163918 207 105 78
190.624725 -1225.805999 4699.224826 135 65 58
1258.030896 -1043.151151 4728.943914 136 78 73
1258.030896 -1043.151151 4728.943914 136 78 73
265.776068 -1203.221950 4723.257502 171 95 81
-353.797854 -1322.228524 4717.661341 126 56 41
269.045235 -1171.154828 4835.005600 191 106 87
1194.601769 -1089.488790 4733.317099 142 85 80
517.354457 -1196.048171 4809.357400 155 91 83
355.785509 -1192.114200 4870.992836 193 106 88
41.966957 -1294.155020 4795.998267 178 99 88
-440.909590 -1503.303686 4677.382022 148 74 62
29.051531 -1345.094592 4839.495968 168 85 73
405.786703 -1257.039197 4909.151517 201 109 86
1282.974100 -1170.999270 4809.947861 183 109 97
1163.283034 -1161.905983 4874.917799 176 99 86
375.055156 -1300.236260 4897.391951 165 87 70
269.591159 -1314.269905 4909.986703 157 85 73
1107.354369 -1161.917508 4902.619066 165 86 71
-714.011920 -1560.988178 4832.559813 105 21 3
116.221495 -1340.297957 4981.881051 199 105 86
262.645889 -1387.092377 4878.714941 199 105 86
241.288574 -1409.166529 4849.560740 153 84 76
1053.489510 -1209.156090 4918.651269 163 81 62
1100.224871 -1213.935821 4907.824949 180 99 81
-677.590882 -1598.622395 4857.283249 106 23 5
-815.943483 -1661.438911 4815.560458 233 123 93
1059.861176 -1235.182493 4915.227718 179 97 80
1140.747990 -1232.117466 4909.644213 134 68 60
400.094649 -1356.553163 4962.470104 148 84 77
924.570624 -1264.321458 4935.795426 159 79 63
1269.601264 -1214.167353 4908.667698 160 88 80
981.699129 -1273.262269 4948.937954 192 106 86
401.381518 -1323.623613 5076.085345 201 108 83
1212.412175 -1248.543401 4925.725998 154 87 77
1186.977695 -1251.569010 4930.298933 184 109 97
590.727410 -1362.153450 4982.599432 168 90 77
-209.060122 -1580.566935 4923.435609 124 55 41
-228.956866 -1610.087647 4890.228490 164 86 73
1132.717332 968.726679 2657.410905 132 69 65
1087.011488 971.956161 2669.969307 129 67 60
835.895249 1015.744403 2665.548243 135 69 56
659.999982 1058.427363 2628.408982 122 60 51
1852.625367 608.746599 2918.555536 190 101 81
447.580700 959.300294 2483.638684 163 81 61
1858.001630 540.104026 3019.281253 150 73 58
1858.001630 540.104026 3019.281253 150 73 58
2023.351156 522.593889 3150.800849 146 78 69
1769.234466 581.474377 3160.281787 161 81 62
1998.700621 -144.099331 3208.560538 50 56 63
1857.954707 -420.049190 3030.645399 114 155 224
1862.322877 -430.899181 3052.418524 122 143 226
1511.353735 -610.017620 2806.199086 125 137 161
1147.472953 -506.726951 2790.531806 111 184 220
1508.488625 -619.745381 2837.144754 92 156 191
2020.044071 -457.758749 3429.697556 152 188 217
1882.531634 -595.523995 3271.098697 43 113 140
2033.347917 -105.187083 3856.007228 73 43 38
551.838239 -705.086950 2999.254716 95 166 199
1947.560501 -555.479682 3442.552169 170 216 242
546.951363 -742.224104 3000.830325 121 188 221
1965.093823 -532.035906 3523.994919 25 173 214
1703.128991 -867.072284 3218.659161 137 223 237
1403.897995 -900.517140 3151.727550 120 193 222
2005.667274 -270.881682 4012.882073 50 24 24
764.271854 -1085.643808 3329.205967 111 183 217
1900.560797 -487.682183 4224.552772 62 125 198
361.589855 -1123.850422 3500.023500 166 224 237
1877.881921 -1032.835487 3646.237991 115 143 173
1619.882892 -1203.921479 3912.618103 156 204 239
1367.448038 -904.662025 4613.875589 118 69 69
1331.246812 -950.873014 4648.953336 121 71 71
1331.246812 -950.873014 4648.953336 121 71 71
1078.788985 -979.743229 4661.464798 152 95 93
1167.904848 -959.263149 4688.673987 135 80 75
1503.550642 -943.942027 4659.535877 126 73 70
1216.132726 -971.673021 4691.824064 133 79 72
1041.575266 -1010.629532 4698.296127 142 83 74
1532.774952 -986.029127 4678.352597 164 104 104
1252.057902 -1022.465327 4725.667656 156 99 98
233.790543 -1161.271800 4860.520560 197 112 96
259.964944 -1162.323033 4885.216686 154 91 87
1153.351095 -1127.454525 4879.441116 184 110 101
1165.148411 -1136.973738 4890.170141 185 110 101
1051.801250 -1207.825243 4921.906204 164 84 67
1109.228430 -1206.551010 4920.230423 127 62 58
1290.303786 -1186.339799 4896.995012 166 95 91
1158.966219 -1213.623445 4897.793799 183 107 95
1196.694107 -1227.384650 4910.200554 177 106 98
1228.888752 -1216.933562 4924.222950 149 83 75
855.659275 -1285.035245 4957.540776 155 81 71
1620.957544 807.853120 2796.991097 155 71 53
1580.008778 816.996222 2786.072843 181 93 72
1157.541737 1030.515376 2627.309926 174 85 64
1747.949905 693.360593 2834.452698 151 78 68
1725.487329 677.825685 2849.404658 146 76 64
1363.266504 867.914434 2730.362226 164 71 44
1800.719030 646.279314 2904.912907 165 87 71
1497.005622 838.560229 2814.838444 131 51 36
1357.612186 890.172677 2755.626569 193 98 73
766.512281 1067.929677 2489.916029 146 68 52
947.931480 1030.898920 2636.878418 176 90 67
1540.941427 744.237570 2862.914031 203 102 68
1689.287614 656.960645 2918.054315 185 92 66
1831.008294 557.328406 2951.528026 132 67 59
1835.123826 550.494590 2951.054140 132 67 59
1322.418449 819.984536 2785.609726 150 68 48
969.038451 1005.283194 2685.557561 154 75 56
1789.408827 580.231234 2977.505382 183 93 64
471.333269 1038.803774 2439.844574 102 23 7
1755.226277 605.055382 3002.393125 127 52 28
1878.857320 550.004331 3054.844675 175 90 70
1110.703285 972.799517 2827.421371 160 78 60
1773.096327 591.335523 3040.649048 175 88 61
523.820082 942.177892 2479.079325 120 31 12
1466.554665 740.833764 2947.799083 168 78 54
1082.738732 948.251485 2838.612461 142 66 44
493.912960 900.968179 2469.246061 193 98 77
493.912960 900.968179 2469.246061 193 98 77
1062.773078 874.403026 2814.868713 170 86 64
2000.036996 485.642461 3162.406698 141 73 61
1930.065355 523.637270 3154.356699 138 69 57
1896.431959 541.121437 3158.258778 98 33 24
1863.357105 537.549477 3170.949497 124 55 44
1819.140011 580.108465 3188.788846 105 34 18
1540.265441 363.385650 2882.758422 116 44 30
1759.189147 594.601370 3186.136013 130 63 52
1572.179451 238.092167 2879.262861 154 125 131
1628.481627 205.945981 2929.635333 136 151 180
1651.431736 591.668140 3215.226901 153 73 48
1543.552431 158.001758 2865.672787 163 167 187
1945.167552 448.548972 3304.993965 105 41 31
1647.051934 197.412617 2963.944967 180 195 224
1829.610557 493.376848 3287.020652 132 55 35
1887.560779 464.503543 3317.417260 147 75 55
1807.541067 474.999655 3286.344778 111 50 35
1742.235692 296.044077 3197.404624 66 69 76
1542.289937 -131.107493 2840.982287 49 81 94
2084.442253 242.458939 3417.497758 151 82 72
1728.268987 478.425055 3401.739300 72 50 38
1898.133636 -154.667900 3070.776851 130 115 206
2022.846848 204.376310 3429.560773 143 77 67
1873.576343 326.853389 3483.455439 63 23 15
2014.344378 -207.589420 3268.266243 81 59 142
1529.503594 -404.583892 2913.769618 131 202 219
2095.352465 66.356630 3580.499809 126 71 68
1991.639550 -222.386158 3300.839882 44 61 70
1906.312320 -461.227968 3085.428844 51 49 172
