ply
format ascii 1.0
element vertex 723
property float x
property float y
property float z
property uchar red
property uchar green
property uchar blue
end_header
1762.494424467468 287.2344108177608 5462.818606188327 210 121 101
978.0362076372903 224.21906960754058 4784.084099349421 108 86 74
1726.3478821117321 230.3961028313164 5002.45003214075 195 112 93
1866.7050806061293 459.25773443263995 6132.0292818875605 209 117 90
1222.8119315221238 210.6572482541864 4381.15161450105 182 121 71
2067.4417439245944 379.9309859409327 5603.47368439337 163 77 55
2635.0725853792865 397.99898186224414 5839.1554079273465 178 81 53
1166.354266843411 241.50444532340387 4389.208516563578 246 179 116
1138.2399803508986 256.8553884850346 4392.099439151897 94 66 42
1373.674906835627 308.03181535793544 4469.6517523877965 168 113 67
2009.8151948981588 524.7128703353417 5512.1655142389745 203 113 91
2461.551359924495 578.2186154040181 5770.727659208259 218 129 109
2556.4547143620866 461.3894926298259 5165.165954163529 182 97 81
1679.01942083684 583.8634883561119 5489.479212542243 150 78 55
2420.7405872640406 517.2131661146083 5332.051785771035 188 94 75
2585.708802581094 520.852820976197 5186.467549421336 221 129 111
1292.687354882184 468.2485789875257 4572.929105244215 196 131 80
2244.25719273884 616.5060214828135 5401.098008483057 223 123 94
2467.3336880223283 609.463403631231 5414.984077904209 204 115 95
1420.0015268911104 497.5718104221777 4565.643867826961 133 86 48
2656.0939320025172 492.4898892558643 4834.448520752235 175 80 57
1800.2792436823186 588.3295280314246 4981.948258154092 169 85 61
2049.954577442133 659.5952448757319 5352.354860017268 196 114 95
2099.443480855647 741.746705917944 5625.051316732551 215 123 98
2678.6497694926475 591.0915233125125 5121.960521043411 207 113 93
2032.8930692337667 726.4582123978049 5401.511842821936 180 80 55
806.0851802736705 471.7068999785012 4030.7552253499493 158 131 105
2467.93551244916 617.1104064068172 4951.997989808476 189 92 67
714.4588910682404 524.2418153401326 4153.177780048882 109 81 63
846.7204152480607 550.9361185828365 4301.95202258941 179 138 105
503.749668189002 -627.016067007078 4994.618214674478 82 81 78
806.1669364050086 -622.0837544624936 5119.97945725091 115 121 123
188.19828609370612 -584.0284879420456 4750.115064498651 99 93 87
942.2396181478483 -545.9531994015149 4862.024224083067 216 226 232
886.7013757079437 -528.4420426206864 4864.638040793094 119 131 130
1015.726258155394 -477.53199448539425 4620.938510717905 119 124 123
-206.03020053968675 -452.5968793404783 4520.383571809028 77 71 63
927.4622471854747 -443.8620659938716 4625.977652559873 94 94 87
1303.7040758020241 -434.27916579261847 4416.457503239129 104 106 105
810.1683260227181 -409.5358603209812 4611.1146360074345 72 57 40
-387.3880561860294 -367.5995325887171 4526.6679880781485 61 64 68
1417.863862856197 -335.56244698168155 5333.190903740287 222 132 109
1350.6137088422372 -260.8059021307943 6751.486291093602 184 76 43
1572.824710708835 -242.34937104847103 6146.346480810427 233 147 122
1900.1529880854812 -231.99875051715577 6328.680246339966 238 150 131
1424.3661403770614 -212.45398621717575 6266.817636367898 231 133 107
1549.7929158914512 -185.94114806343094 6688.2754848448385 213 105 73
-281.0391911797156 -277.7025947040535 4193.383681756289 55 51 51
735.7229889182884 -276.57613517340474 4389.43700064805 101 106 107
1967.2032588523496 -181.4891060457591 6300.785893036796 221 226 231
351.0767459827303 -275.26251675184716 4035.8931658385236 212 227 231
842.1954688478957 -235.71930654490393 4465.102235534896 222 242 248
848.1810872786527 -235.26907487312135 4185.964325032199 223 245 251
1962.1460566869625 -111.92530070094003 6386.777932755748 218 218 224
-144.7868030513864 -225.5737009791089 4016.262834893987 132 132 131
454.71676319914076 -222.7144044789226 4219.212376198729 181 179 178
305.35177719084834 -172.5448348839963 4887.01442784317 219 229 224
1618.2223451883856 -51.90290323033735 6307.029470018864 233 136 109
1943.1397212758782 -82.68734084806339 6013.916698965217 120 20 1
1747.8027351190613 54.50805055093614 6327.547366705655 162 55 21
2269.851345531527 -7.756449935556121 5732.864308458822 229 139 115
268.6292773859628 -84.01980710380415 4114.637136116858 93 97 100
1492.3455272024307 35.73558440952292 5008.599126151715 80 62 55
1719.3056206871245 109.59229611036896 5616.939074077627 161 78 60
1240.8713245485196 10.88972045717924 4058.5020793355243 119 100 82
1788.3418649009259 322.00856335346424 6133.002396076473 112 32 11
1801.2861667727566 217.85233439137474 5053.526374443028 186 103 81
1940.5246832033495 367.87928188045635 6068.019002307871 192 92 66
1174.9799224807248 155.7970474274505 4335.0791965356175 254 197 118
1138.4345898023003 262.10412445104413 4399.805210365102 78 55 33
1690.6564853938612 404.78133464344836 5233.359610616064 115 60 37
2040.6554916261282 491.7405973046791 5743.449996253325 192 107 86
1375.3434536185528 325.16453231168697 4484.3768388544495 164 110 66
2548.543750769378 522.1619696832113 5538.444479079026 182 97 81
2017.50175207534 539.9629973275942 5479.48969921594 214 119 93
2170.3062483302288 529.0558234531608 5342.8460516458 230 126 92
1236.5358508925294 429.2481384158922 4515.844489355463 239 173 99
1762.9235049893414 635.9721595988356 5395.843726057317 182 102 83
2052.5133799213904 653.951679408737 5538.8632729699575 162 73 50
2242.3588577092996 648.1008821442992 5371.241399281166 188 88 59
1436.7986488451966 473.41808230058086 4350.20588885787 215 149 84
2014.851583380814 690.5583019875611 5283.491751999461 180 95 76
1601.9898860515966 -75.16352698339061 6215.574304733628 219 132 111
1966.1793587061884 -41.29484962089665 6395.813306644532 182 106 94
-1572.4429404306331 -156.75504204171145 5113.503675242616 193 102 83
-1587.7404843885845 -152.34747316276537 5087.769930922359 219 131 110
-1566.026332649734 -92.53974298729149 5140.37538110503 179 92 72
2427.8763256247253 602.7021003324667 5372.808682055663 204 112 92
-1621.151662497489 -46.248108835920824 4831.019838236614 180 92 68
2114.769661889011 583.041574521752 5372.95179652684 224 120 87
-1615.7275571788969 4.017100945208244 4825.215078768826 191 104 83
2972.3754447433744 687.3139436051115 4934.985176883313 221 109 65
2761.0184751837833 740.3984300990959 5056.738447577693 154 77 63
1634.0468804814761 13.880302449611346 6207.226629276678 212 93 48
71.84251483800085 -130.9647503060018 5999.444016217085 221 228 223
-1619.55659935067 -21.144609187542386 4956.659849015023 206 121 100
2066.9463337933726 622.7570690089343 5260.54241286499 190 102 81
2812.0176413682316 452.8153626434766 5518.094857203554 168 86 68
2408.4753578813556 543.5936271474754 5399.997133096469 203 109 90
303.5023868236712 -151.55321785758963 5558.684797511598 218 219 211
1588.5515340454892 -68.33253176311382 6248.21567820742 212 126 106
-1517.4902197186893 -99.8971537691253 5105.9579026241345 178 91 71
2500.3148633705573 758.9330670914369 5167.874648735229 214 118 95
2676.681829312562 52.37224409312476 6069.572597149954 205 107 73
1943.7547608537302 292.69003487165764 5767.170971015469 227 132 106
2436.089819711726 671.8576621452271 5262.085332079682 200 103 80
2015.3319852387667 688.5181405379092 5257.710765422968 179 97 76
2595.798070086877 387.75108075368763 5822.175427262431 166 74 47
1572.4600704339955 -59.61120470211011 6285.261334069831 212 126 106
-1531.5203347090883 -40.02708554896044 5108.142701834281 213 131 114
2676.400559242611 77.0102180928789 5996.375300692894 203 90 49
2151.955414473212 550.9138406713274 5404.862399073011 221 118 86
2435.072287087719 402.56630151899157 5665.1185960056755 195 107 91
1995.0764643961597 -9.72684786932838 6382.602707626313 195 113 94
2619.3892141992624 323.7792904715731 5753.133287823764 210 112 82
1943.141205765673 718.8096147716105 5363.767347517505 179 95 77
1696.5746396162394 -169.81588833959998 6439.838849987625 185 106 88
1825.7323690988042 237.95790184039677 5916.649844625793 179 101 85
2165.7939542843133 573.0653478079488 5345.579475506713 173 55 13
2365.90730300414 416.97950569954855 5656.642452181364 190 95 72
2241.484414856829 574.8696281314725 5332.071559371858 195 84 49
176.25709665074714 -627.3301529264057 4752.511999970708 86 94 99
2058.9772704889215 642.5699803506893 5201.646840414555 201 112 89
885.7794410118158 -619.7576528912149 5027.044391861089 173 175 172
2201.49458084396 570.6061018941818 5358.554504068734 219 106 65
1165.170047759254 133.01884264193586 4335.162168402007 245 180 120
2075.9735697335723 618.7400440910036 5246.348480731021 202 107 86
2066.509481428448 673.0774117710803 5239.313449916016 206 113 88
463.5072996860668 -372.5442073041154 4456.824205394653 91 100 96
1199.735620953973 -310.30954597106285 6522.901327846501 191 90 63
1077.0827874233487 81.37770418912689 4331.409820588133 143 113 87
1931.0382328132087 253.6914895833748 5800.031380434817 193 113 96
2863.537558304454 195.60533720810975 5729.264873464158 223 129 105
179.3255055494447 -325.6119915245738 4189.020883990252 218 226 230
1612.4181372104583 112.08983740729678 5095.804489574714 136 75 62
1174.1962874776304 45.25410686611607 4386.743448168979 166 122 91
1329.282112883853 541.0920384660405 4367.807894905661 199 131 78
1432.9118347918447 -195.32540949477698 6309.352524863634 204 101 68
1341.3035686022165 552.2248726168481 4373.561680285868 170 116 74
1176.5610745513754 10.235757922465702 4427.876152384318 121 92 70
1795.8544362890786 152.92474743365102 5933.2314800385475 200 110 91
984.4424306649055 -27.928276629722465 4303.022441939696 131 100 68
1209.4969427618128 -19.256881729750777 4457.921014281293 138 107 78
750.1373890684496 -226.6627815642654 4291.212214366488 213 220 219
2345.4019648128683 611.3524408178251 5355.205707589563 229 125 95
2688.791449067596 79.92549537666822 6029.522255889835 204 96 55
2101.9989814965243 600.4594321369575 5327.884306111963 218 117 83
470.30926846905203 -193.34618689554583 4102.856605529644 91 81 72
-1164.0915443778417 -102.54074394572237 4898.420881487717 178 87 70
977.9867337347848 -114.8114713146535 4300.139141537938 107 89 78
2693.9096492300037 619.1041914619195 5278.739165261527 213 118 99
1180.3008946890163 186.92309165414892 4310.081681966985 155 98 61
1134.5923265560243 169.32513282511528 4331.065832999719 171 121 81
1922.1049951129587 346.8739096598881 5700.917418057692 191 107 88
-1158.7930077567717 -118.66071409102898 4916.915451121517 213 127 109
1061.9302688001899 92.73450843934705 4242.290572091327 147 118 91
1291.7476967308496 -314.761790131588 6559.854024285695 176 89 65
785.6981544190622 471.8241831806367 4032.538699678413 156 131 112
2366.46491322419 99.77826645897426 5998.953677834392 209 127 108
2059.4583230894605 622.5043278559884 5278.499765080803 175 92 71
2448.11222294229 489.51376076975 5589.816173569762 190 89 59
1391.4778615868809 -211.14555330787525 6296.619507297535 223 116 79
2438.5572765380575 587.1540444632568 5355.029137390839 208 115 97
1365.9687449418388 -231.58441570437418 4915.597927195685 125 100 77
2769.0692126713584 384.293425072073 5647.524756831784 206 116 97
1426.6422144688606 -168.7976169135457 6361.838791136729 229 121 87
1443.6224555669023 -175.9094737765557 6365.9064254465375 207 100 67
427.2242344619599 -236.9154013437051 4191.565240582954 100 102 105
2380.16311825304 628.4101639436684 5368.6666200764585 205 106 81
2484.9238095252094 870.8038543146868 5065.661050511416 189 102 82
2037.4057257694087 745.6335581518599 5157.631837018829 177 90 68
899.7879602193949 -81.975591898224 4238.788189629208 102 96 94
2825.918985888156 513.7917156235693 5553.123103107508 183 99 83
2023.285648259342 672.8144699769646 5219.555805198603 173 91 73
1878.0019037386037 877.3561819917913 5064.100389668668 196 108 81
1039.2117640704796 538.2127074813279 4123.140024650309 131 110 94
868.9340948733609 -70.98832613278509 4248.558843838868 114 110 110
1160.7736363076465 169.8621954235345 4346.71087251143 175 115 69
2059.123397216992 558.3694102919253 5284.3034987455485 188 96 73
2080.459423379575 574.3936183050305 5292.6930642367015 215 123 97
2223.188062451798 532.2555313849775 5278.218128169532 222 111 75
2102.422041239418 554.3301619153696 5339.854416010471 221 121 93
1223.1571488629675 387.50917913514024 4354.1002409379735 160 108 68
2125.7765259987846 547.936442682923 5363.866305145786 215 110 79
2221.277226003463 544.9833898826864 5401.21167451899 211 98 59
150.15032565023984 -636.3381068693246 4816.397826128545 98 103 107
203.5022007111067 -602.2527190931664 4758.40334270087 84 77 68
2105.0472538286813 631.059477291236 5289.915226262498 220 124 97
1198.5956176404127 274.3810957767707 4352.155385780315 169 103 52
1238.764458245437 -230.11770866900014 6390.47235647453 215 117 89
7.135564436826463 -314.98549714930834 4122.52398794403 139 132 125
1314.0367609464859 522.2456102570427 4390.302671870331 173 108 58
31.04524720821476 -304.2189731679982 4102.129393040907 105 95 85
1172.7656630814272 82.46333826137254 4358.070149370933 183 140 99
248.95280750345074 -248.86480934519898 4126.066305461744 104 112 119
118.75451931017788 -133.0295856831214 5792.012141366165 210 215 210
2374.3140817023254 138.29281000631264 6128.700679880649 154 64 44
1600.2899602339617 -77.59798995256774 6132.525619913971 147 65 47
834.4292110182339 -107.22097941784861 4217.03468538751 124 118 114
2647.798886416652 748.677737310829 5118.657081232769 185 91 72
963.6787536009397 -154.5298736590907 4312.235540326792 103 88 77
2239.46810495936 555.3837174925673 5379.784306500408 213 100 59
2824.010402414592 491.4608124502173 5577.7513531461545 196 113 96
1701.9444407034023 462.1218007215982 5200.587080535321 148 76 47
295.42473300442794 -190.9911451926904 4099.134736359943 99 106 109
840.0723844452427 -179.17963898901834 4263.40618256082 101 100 103
2453.01108405556 472.3397315976224 5630.249074699698 212 121 99
2234.8801895315346 417.10517242591783 5590.586176774092 239 132 98
309.3137332558375 -217.38071874284688 4086.4957547203835 96 103 107
1877.6305647924748 366.55196135061686 5698.250294450911 169 83 61
1412.46236946855 -230.7702184239067 6560.843588175792 176 84 59
2012.0801314277105 724.6273658576977 5151.448079586346 206 111 82
1713.0307837745097 -186.0771463413187 6488.952196714707 184 105 87
1028.8762496752868 62.963916073244974 4300.645446848366 141 112 81
1681.1956041013004 214.27809722319142 5849.072088847478 205 113 88
572.845671939802 -209.9869688921742 5192.498633600368 225 232 230
1333.7396861749644 -156.4190815696292 6325.763667734916 184 105 92
1630.8903889769535 7.719063828838429 6097.441870822474 215 105 67
2839.5945663856055 663.5125618505292 5201.517827628291 220 124 100
2027.0869227107837 661.5599474230609 5192.5039159892285 181 100 82
2660.108761755122 776.4183246813407 5056.003151843387 178 79 53
1621.7612450411486 -200.8019796035836 6361.961261681495 210 110 77
2053.323753822032 574.843322548366 5358.094334669394 199 104 81
1619.6195957148327 145.78081924689684 5902.925430698939 226 135 116
1985.681902435595 688.3406655606741 5275.7489766687295 201 119 97
1919.5632211396714 891.061661100882 5058.898577504629 213 123 99
2269.2104043484355 546.0275159332864 5418.859532067665 202 95 62
860.5264289462534 -11.434046051771286 4228.99455015341 120 107 91
2716.9701297067645 758.9365625933536 4965.998463783742 169 88 73
1600.6500736086139 -212.48396343318475 6414.611883982644 222 125 94
1311.553014846519 509.9221305310734 4367.740360349765 149 94 57
2685.161390156348 592.2479611205814 5155.627675837583 209 116 97
2101.9846146996438 635.9566060651254 5299.270680615101 220 124 97
2639.3349718561994 768.4535186075963 5135.943464582798 225 130 110
203.3739986091054 -313.2503797479831 4124.428126775156 118 129 128
477.0997319232678 -229.98708937714497 4123.904156947912 88 82 80
2262.158033091617 166.61265612629435 6039.624459870116 190 107 88
628.7831803858953 -653.7374211901819 4953.286112318119 203 215 218
-491.2079523087136 502.73758414327585 3943.4771046835913 178 112 102
1991.573663232252 676.9534239655254 5224.609843013428 201 119 98
2442.9583782137693 592.0828118647087 5367.171841257281 210 118 100
2401.8006246219875 515.1064104167301 5482.829443491191 191 98 77
1629.302663463778 151.41693686696388 5870.707359438439 226 136 115
1939.0838565532515 -177.3748001376666 6491.086344717105 220 224 231
2371.1518013630675 678.2654285972255 5242.944432293406 207 99 68
1796.0754093219307 342.2726413222474 5667.658424365671 164 90 73
2038.8821308225995 454.8382397264801 5385.891309531675 176 94 76
2652.5477651773117 347.2990763186538 5760.610957978895 214 115 83
2051.3526376700906 755.6684039093719 5052.159374402606 192 106 84
1925.5036936947552 509.2523522610729 5426.807921695879 185 108 91
2074.4014592721187 538.7454541623745 5361.48755419776 212 112 84
848.68278963622 459.8767176646363 3937.933643619254 147 125 106
1869.9493113814692 122.62779033251077 5917.576308509043 192 107 87
35.45089254722777 -653.7301272850798 4754.1258814759285 96 106 111
472.87638035332276 -241.2970925175431 4108.489406580392 96 100 106
2104.248016099199 -84.34532380088126 6391.098977546655 197 114 99
1612.112333127137 -78.47073918841593 6339.126735471991 177 92 69
1560.5170236791926 -79.9726283845639 6160.042806065188 107 24 7
829.5333872864841 -199.46765914579592 4265.999877524623 139 144 149
2664.1653448029865 16.07081147201105 6214.887380283245 219 224 233
964.7005839479252 -129.3284315133547 4322.753795893968 120 103 92
2614.6983112975145 709.9553249662698 5116.18609086744 203 105 82
1853.7776283625444 117.63547813717918 5877.897065640059 196 104 84
1492.8507998732132 89.76216707880002 4726.820690328397 112 88 65
1031.8938984186946 54.07210437864609 4276.273330920496 144 116 86
1042.7960201699984 77.45337361878536 4288.882388758275 172 141 112
1994.737451414009 304.02770729642674 5790.590308420151 213 109 79
1795.4473048505356 333.8758751714446 5674.212350087006 171 96 80
2811.4479204947256 396.2531183527708 5592.336285168751 213 116 90
1205.2404327871131 267.81004298816697 4330.285396695959 159 98 51
1302.4331545817352 480.5712644337258 4356.271352818809 229 164 105
2054.1448747926675 640.1157875571672 5255.186350810097 196 113 95
2585.290385286259 526.7869014717986 5352.753240317989 185 100 84
28.872597235827758 -657.1119907868343 4763.064990389231 136 147 154
868.2510671794477 -462.6626402879433 4786.974413336093 108 115 119
180.86282981428664 -344.96943306739837 4319.325804123279 211 223 226
216.03839738212662 -305.11657341217165 4178.047435175203 218 231 239
967.9270548420062 -146.3839478213495 4328.184569311384 129 110 92
2087.718413995383 596.1989143249365 5274.7452974200805 181 79 50
2403.464015323394 565.5863652524899 5350.5075540270955 212 120 100
988.7445549776205 -53.40932664212913 4315.883889059519 114 98 84
973.1441660638059 -26.251551530843443 4307.976159327017 122 91 61
1183.750342973313 -1.5571475234482013 4414.7395606043365 124 103 81
2576.5304244456192 533.764931701774 5403.761558187344 185 100 84
2077.456949045272 261.10980211329303 5686.617027577802 197 91 53
2428.059788885205 497.0974699418417 5621.70409595684 205 100 67
2065.1635573514136 409.71815806236106 5496.755187759488 186 103 86
984.5178443549436 0.8749377367602199 4271.916281822534 145 117 87
2402.020901457199 624.7735283432885 5261.241145615177 221 127 105
763.5343426709255 568.6524112276579 4041.7867983291017 158 110 77
100.83691809143956 -613.6825605687014 4751.744923386607 134 146 152
910.2804939856709 -561.6593310460845 4945.361110038272 223 235 238
791.0773887428302 -421.669065174318 4690.4497518722865 69 56 42
433.31890210431317 -364.5918402414417 4529.479526203066 12 21 27
202.59455091627058 -325.9200920916806 4186.601616374099 229 242 247
1950.1419609617865 -180.876419764017 6457.516164635396 218 224 231
2564.5849545683836 547.4428367150293 5561.713609497988 185 100 85
2411.7076782241647 533.6343948312384 5462.003294240115 185 91 72
2438.350926920703 524.341284515699 5566.451151698682 222 130 111
2270.786173387209 423.55550081521613 5598.950601104783 144 52 26
2335.4238939754255 404.1433249980777 5637.828015547995 173 75 43
1972.4214354249184 198.39906099237885 5753.528792646325 141 50 27
2107.1345983310616 231.41903192931554 5783.087123600302 207 98 60
1113.7738636452514 85.03443927225607 4344.291917945981 118 85 62
1792.1316948897843 342.56038491142596 5769.909740437382 156 84 71
1575.3504641117781 -206.58080564370894 6480.677821855932 224 125 94
1900.2479887219015 499.8960591276162 5476.95335775478 182 105 89
2041.573889649106 460.68042279021915 5505.708003430656 194 110 91
766.4122526857197 482.5568355238772 4015.3622792780284 118 95 78
2145.6829728379134 -79.73075096545618 6211.97726665914 194 113 96
38.274099496214866 -651.5663427349143 4740.201160957684 105 114 120
-154.8759538920565 -520.3757362666926 4470.804967368149 125 116 113
-189.47713610320235 -392.2910592944866 4233.222121450701 61 65 67
1432.5274416975103 -140.31202391602696 6409.626817497848 228 128 97
2265.8825484327863 40.825575858394096 5844.93932414028 224 123 90
1141.5159176820775 29.044792670549626 4343.102658649395 114 96 78
1032.5662969173 82.58621488126154 4303.560740696164 178 150 122
1904.326232634061 486.78658528221473 5457.415902860224 181 103 86
2488.045796042152 546.8403794052051 5521.556892682451 215 125 105
1370.3072751729605 528.7587815852036 4653.78092626739 145 94 52
1695.5954439774687 -226.05700977140856 6411.896911480827 218 223 229
2329.9592117385614 487.09335711121486 5652.371924401777 214 104 65
645.8036521692302 -688.1636859438404 5155.163851064187 101 107 112
57.42921299869836 -631.2478764935493 4720.9593662404795 96 106 111
-329.6759229581484 827.084324654763 3492.3153401688915 181 84 60
581.8297811493618 -629.3260813702294 4995.834565435006 107 106 102
-270.1388580949286 840.8855695763315 3588.4948957970664 162 87 71
468.1940882973688 -622.5201172139209 5113.710568203144 101 98 91
-291.89459312642066 799.0937300391055 3629.643568595453 182 109 93
128.6846317511126 -573.3793920021302 4659.010387578027 154 157 157
973.6524806763972 -581.2327866631229 5103.223309445932 215 228 231
2653.096150478594 795.2485478913699 5130.066822385011 176 77 51
765.8683974092763 -537.5138504141098 4950.216177261608 95 99 93
24.94284544635173 -503.6931995471175 4198.429540790557 83 86 93
923.0462613085334 -538.6339955149502 5038.831749470202 196 208 212
2634.0370234070706 758.0428147073403 5168.265143068465 204 109 90
825.866252119385 -449.1371106923973 4771.132884594017 91 93 91
255.4881055190728 -341.0608646326569 4230.795778915339 212 222 222
2121.9575465519893 738.6816214317128 5092.404580863664 182 95 76
-508.30530183754837 723.0521856434979 3747.9563530117575 158 85 74
-199.4726094648543 -312.6152872956944 4198.238535738601 93 103 103
-218.21718358248754 -291.5764183250094 4157.958894079121 102 108 115
230.67456137710045 -299.306411814669 4141.2578039153 215 226 233
-525.8923345891124 681.881134357402 3826.4992865219165 154 83 70
2083.015203248248 681.0298309396584 5126.887066945335 191 105 85
2036.8025110832828 684.892823493601 5125.531187638309 196 89 53
1189.0328044445976 -244.50095877135107 6366.465842235978 211 115 90
837.0161148124081 541.6555839626034 3952.5870036047763 158 105 89
331.939844584049 -277.76005735212556 4068.5491070974854 205 216 224
710.5424769562509 -282.9900095866499 4360.136685442512 202 214 213
744.1281277727044 -282.25240955165043 4434.506443476854 94 102 102
1171.1799526674179 -225.08622890891837 6365.411139239925 215 114 88
1141.0790145755448 -211.27767634127076 6361.425145107672 196 92 60
1167.336346472194 -209.79330608080608 6438.742251622029 181 82 55
2262.762241447317 672.5707228246442 5289.499709709118 224 121 89
1998.1821043908867 667.9192397907141 5163.968709762121 197 115 93
-490.2069303611139 643.80639299622 3812.2603293683255 155 82 70
314.9694108879376 -252.874142579614 4072.476702642576 113 124 132
1214.2877594596785 -196.08695510464779 6375.2994942697815 221 132 111
-541.1436006039835 634.248426926766 3759.952136001607 185 115 101
2668.0995679074877 604.8865378336492 5272.571476610962 200 108 89
1327.0009745370921 -189.27251323991442 6318.120028298821 203 123 106
247.7453282280321 -239.47102126927544 4045.826285508707 103 111 117
476.3346182578219 -241.14944501155273 4199.9139815663 140 144 142
-568.2301476235391 626.0825365695513 3800.474360594445 188 116 108
1185.4996623867896 -160.67340020263214 6370.725687848227 215 124 100
1348.8496096676918 514.1854678862966 4324.1643417227315 178 109 58
1364.737317152801 -154.63663355962169 6261.4243707774785 179 99 86
2062.3681498740725 601.0874535590333 5147.7556205760775 183 105 88
242.29783344621723 -203.18804632346743 3969.05744143869 120 129 126
475.03513917051106 -191.1657673159914 4114.671603952648 179 166 153
-307.45663282761103 553.3243766575107 3748.1506778623184 178 108 98
-625.0587594215709 611.7701779010991 3884.9852025270457 153 79 67
515.552481179207 -175.41324525084815 4039.635068060567 177 166 155
-564.6350115152429 574.2798202337087 3809.009192164747 170 96 84
2108.0188203873213 595.3692049051907 5289.373852807678 221 122 89
2242.9523957908796 584.7683913048506 5368.5076044521775 189 83 50
492.9952856089761 -151.7412608513429 3998.2849470752635 210 227 235
2092.650672552115 570.2863675995609 5243.517452557333 215 118 90
1287.5944113887924 462.6606943693124 4328.934367459288 154 94 47
1685.764724380511 -48.01478076939094 6155.261143865296 207 97 55
2937.8961607033157 508.3673884348939 5493.375050747011 198 110 92
985.1887616716025 -126.74861347931167 4329.843632552497 190 170 146
-1045.5687603833294 2.8739843215442136 4542.833457634566 173 92 78
2832.717035965832 520.6569540219496 5579.247441280194 196 108 91
2820.9514765792565 506.68319350781655 5539.764726498923 179 95 80
968.6456333755254 -82.15957205089985 4328.169856588511 112 98 88
2551.143139194462 -15.31827551502804 6169.607919844102 206 92 48
965.1533076999638 -73.3554952717708 4326.010349814652 120 110 105
2562.4053906504164 0.08137565202338157 6167.65440435262 204 93 52
489.8954043876702 -59.192181577034695 4013.7054304359153 107 97 90
471.74382376481657 -53.56123167391924 4004.170196521017 207 218 219
487.6167945183921 -54.10727828566122 3961.661658148096 114 118 119
1265.7312690940937 375.6920837613046 4279.443130499548 169 114 73
2692.0563586001867 39.99462367232816 6122.18986559446 213 212 219
1468.977828679504 29.740911490066907 4905.263664830294 128 107 89
2822.388101137951 433.3177904105982 5576.22125972646 195 111 95
2685.088092081806 87.03507977314952 6128.977068275983 204 101 63
1178.2542376706313 10.322470413007373 4415.602862108298 131 110 85
1498.2880741704423 31.661256542040405 4788.212303985697 134 111 89
1654.7295046092788 135.20630217161607 5877.265823749178 183 95 75
-844.6906659076758 489.9965267829152 3962.7654108687543 174 97 81
-1035.123307848082 156.84269523469686 4379.976812410835 174 97 82
2054.4497709529296 458.26855806361976 5365.680863686257 179 93 75
1227.8676666279566 342.7303093413334 4333.399692828673 208 150 98
-851.2966241279157 440.93711671701607 3898.0680140754566 170 88 76
1148.448555172285 50.586278506116 4400.184800658259 119 93 76
1803.8082907408868 173.89334415417778 5887.773044861906 200 111 91
1169.2983304913937 55.13767504678591 4386.3482084856205 140 109 84
-1018.5287947447845 184.440791072928 4181.391732386585 159 81 65
1206.4003287565215 62.2181092273504 4392.595475148695 218 154 101
2745.705829170445 383.56433330947146 5688.360154448945 183 92 72
2365.9123836068147 413.21941259539267 5654.833714295394 190 95 72
2229.3090701297756 422.21625937073225 5668.308067106398 220 117 86
2272.3652768351826 175.52343685166397 5949.700649931107 162 83 71
2229.4766160841796 410.95611018122906 5627.433046875105 206 105 76
2359.9439159817484 393.14520247823737 5653.842128666666 192 93 65
1708.898699808293 235.65344101637316 5779.256896943742 213 124 102
1892.9261308114037 392.65801193806055 5593.488882156819 222 130 105
1188.037034720605 243.42347166786826 4309.195720643961 165 120 82
1176.6573392606726 234.9449526777459 4302.5481802884115 177 133 97
2096.1578249560025 353.59775376113674 5683.115361273607 197 107 86
1905.975944626621 358.7611047693026 5638.986194008529 201 109 84
1173.569013336908 217.29105758547118 4297.6526926887 136 94 60
-912.8783665381219 349.38307350597273 4052.120954058725 169 91 78
1947.2762577935307 277.72742989534044 5733.645729011932 227 132 106
1904.2542265552247 350.55572177803896 5688.721611496117 172 76 49
1659.7687557286968 316.77291089997624 5707.0576619526255 176 98 77
-910.9491992201592 331.69930410873064 4050.476000624729 192 117 104
1958.3367856947532 301.3713835722311 5737.63344086895 231 132 99
1655.2937994945535 325.05510534322013 5673.969820896419 171 91 73
1932.8936040481797 311.80996182921507 5736.754828411042 195 104 81
1636.8347844824693 235.8372038088324 4984.948202044522 127 94 72
1164.4854311215254 187.590117503937 4294.573869662887 169 118 81
2577.913101214936 810.8665930247512 4998.9637766684045 180 93 71
1931.9397855961283 876.7095295401198 5006.713146903719 213 123 99
2243.2132167646346 141.45840388990075 6059.048919699532 210 113 89
-470.7731239677937 729.4187113369304 3749.002581807254 165 91 79
2541.434965143577 734.6341281183953 5183.9710138406435 195 104 84
-994.795387781536 372.7728539602405 4054.2915230640524 167 95 81
2560.035211355649 752.1959692851776 5181.569250016405 181 93 76
2715.021510398335 640.0406432650323 5284.841844288037 208 111 91
-244.7707195892033 846.0613875156243 3560.729602841198 189 111 93
1930.9175869112537 663.7830771182358 5201.181737652455 183 106 88
2842.318325372258 466.45835261336526 5571.023077934701 188 106 90
2651.7715033439245 789.8979827243721 5107.251842568011 186 86 58
1912.3181207114585 857.3686629531718 4994.972799148427 179 92 68
2643.788166366954 748.5763784415291 5062.479342688335 228 130 108
168.5106055081551 -559.5737677075933 4623.178197777027 79 70 60
151.30041330164812 -555.8375718060053 4607.157327818274 104 95 88
2632.7632873955436 725.0209675431068 5151.408014541324 207 115 95
-489.63583043922495 716.0950796029431 3734.011356034711 167 95 83
2520.036058889617 676.7857618389229 5213.66414471334 212 119 96
2519.2098768203014 677.3226148081367 5261.244638780791 181 90 68
1077.128511790668 -408.95113979329983 4834.781226707347 107 113 114
2083.9249493320985 662.0339053377234 5142.645734980904 204 117 93
-554.2654631791044 662.2974656069612 3831.8929366643238 178 107 97
1365.440836666874 -334.6678328277736 4902.282253201968 166 153 139
-552.8110431973705 646.6050624012214 3837.649413349172 174 102 92
315.9580567472195 -299.3257825344607 4063.360355659793 214 227 235
794.2822575518734 -286.5223227139151 4394.959826070751 171 179 183
1443.9363918938825 -223.4881567728773 6530.790193542664 224 131 105
-561.3017933077716 622.063293641774 3796.7485931798024 191 118 110
1190.3278400085123 -213.4470057106237 6339.910661982734 184 78 47
1277.3617108649266 -217.57269767905933 6352.573728141544 192 96 70
1324.721477080689 503.65119818905504 4342.293202632623 166 106 62
1252.847269470118 -175.68794730106544 6270.056765263073 186 94 69
782.0445964806725 -217.10080367227897 4804.710643697798 204 210 205
1699.886440428465 -182.0281778109569 6368.364148418803 194 108 89
1293.29251071989 493.11059798485906 4371.187491811992 168 105 59
-579.6791430477325 583.573586795769 3829.463492225451 170 96 84
1369.5801056488049 -229.88811318423922 4903.721262039837 123 98 77
-337.58173572856543 522.2520151014685 3796.8034483946853 184 115 106
2091.2806252636838 565.3619898635959 5235.579738448292 214 122 95
1261.2366778909698 456.24197221722727 4381.780316165235 202 138 81
1255.881091211402 439.14670791090896 4348.6323376473865 209 143 85
1583.055166062362 -90.97373452153452 6151.90648073904 182 99 77
485.6062093085632 -160.8136393132071 4067.113947558587 103 90 83
2817.9951586404504 484.64586264455454 5563.870897296352 197 115 98
501.10771703190136 -156.12294761002693 3982.6884824132458 198 216 223
483.07552244285404 -142.85451306979922 4062.327137964585 106 93 84
479.54298739635783 -144.11203486673713 3999.7908147206535 202 223 229
1244.5644507958084 366.81395779396826 4296.223038188703 215 150 92
516.4372711739555 -127.71520302953184 3976.705666182084 211 229 237
522.783461871227 -124.0675363326792 3927.776961225417 192 208 215
1193.7088044666432 321.5253015701103 4359.030346766944 142 104 75
971.5988291573284 -100.97280894590716 4312.993532950342 107 89 78
847.8895401940118 -86.00729335920153 4226.578291035262 100 92 88
2237.3810539249353 414.1215235103223 5588.178768053215 238 131 98
1188.1287761388724 274.2050170432399 4354.825981219586 205 142 90
1187.9047251852023 245.796646932184 4307.63763410722 122 93 74
-918.9074599781154 365.80024429823754 4064.077118430798 169 92 79
1173.710886823361 209.68050264263977 4298.769257423437 156 115 85
1145.1539912505314 193.82461243211196 4330.166238360485 173 119 77
-1044.1326529108817 155.43153221603748 4385.497168343725 163 86 69
1976.197748458515 285.4200426630585 5713.136464213593 227 125 94
2679.8784726791528 108.38047085052587 6098.690805083651 180 127 115
1950.758177641255 275.0066344695798 5712.513528464406 210 120 97
1132.4859748608694 34.99418491968889 4365.082811589899 112 95 81
1919.058856826431 289.6356094577487 5772.909358279972 160 83 66
1145.627853743261 42.73890450025553 4374.49110298842 116 102 87
1752.8110868821777 172.19234041029407 5897.833380031555 189 109 93
1783.4013488371756 180.35327901329825 5964.051360127099 210 121 101
2210.509121984963 160.4209961197603 6055.205729140385 185 89 66
2284.5114986853146 166.65976302532954 6107.703596385726 154 74 59
2303.7607141505614 164.459422487019 6103.172280344261 189 107 90
1180.5244896330996 132.87287855761102 4347.359273403363 163 113 77
2724.930662721116 165.48933445700155 6075.995288725887 224 218 224
2023.4499146272344 221.83779291642344 5826.095588317098 227 125 92
-565.0320926108333 640.8986150528407 3779.367379670485 188 117 105
-931.410036230262 249.3405523300151 4068.506302160991 171 97 83
1794.1954178622223 895.3693937754526 4880.704025387782 205 109 74
-356.4270600625155 660.6028789386476 3795.5598884102847 169 104 94
-335.634588427554 817.468112637947 3671.823088360337 182 109 93
2013.4724986609967 291.64313391431745 5715.094755437805 198 92 60
2836.8699789425955 659.9374262069161 5276.556799847636 188 94 73
1073.573786751306 -442.8390586298425 4894.298320323709 216 227 232
1632.5957535104956 245.16447436451796 5003.281066131459 125 92 71
-858.0788666842598 341.1452683748955 4223.5670112141115 188 113 99
-884.6339819847907 325.67914273477044 4072.113141771254 150 73 58
1994.2093186318964 670.8422456511564 5188.765291554362 201 119 98
2477.118118441655 790.9896638955082 5089.9947811875 192 104 83
1931.3464422820919 510.7403898074134 5383.942986443834 183 105 88
2091.695537329499 359.74714662858173 5712.832300736559 197 107 86
-765.8825261598029 496.2074786682562 3918.1626918724896 176 99 85
-941.5775000012738 363.00538993476084 4003.5956740468046 167 95 81
2269.4348971169543 658.3502707004886 5237.539120205553 229 124 93
1159.8032849303245 -303.07952302300953 6452.972773369359 201 111 88
1717.4485606316232 -179.3915506349033 6446.665154901234 180 98 80
1917.4829772313904 425.7083015272408 5592.846101321601 200 108 86
-808.4412004578726 477.3643920164286 3947.5416804943106 172 97 83
-483.3373353290829 733.0596358899916 3762.3382289437977 150 76 64
1916.775028510099 447.1017589016862 5606.40366701665 153 71 52
1991.6565689357635 628.9759937187664 5236.83448309938 200 118 100
2519.339532209708 -10.291571626477717 6149.451226739954 183 97 79
-721.3067215614781 529.3099716528857 3907.9648631464784 172 94 83
356.3943735138946 -685.6136035191546 5200.267935331729 109 109 114
2221.8639572960456 597.85247337265 5236.296328250886 197 97 69
289.4987871503327 -95.71493831636496 3962.284867242196 114 122 124
-463.3895033775076 683.3013958571255 3658.426523850509 165 90 76
2621.2876831888407 610.8646311274058 5234.477477097521 198 104 85
2521.006289844283 673.2080123793108 5204.334204755061 212 119 96
201.06993012783892 -559.3553050422817 4628.4429825562565 106 108 107
803.245204179485 565.1100343999261 3958.5271061898675 173 123 88
860.8516450864133 -550.9174506953967 5052.30278887786 224 236 240
852.6831258660341 -435.3519404922201 4825.852292453392 63 64 57
465.6896840376989 -358.13872477623045 4460.821750763236 91 100 96
2091.993756507831 650.4024702453496 5292.243560036659 194 102 78
-584.5527143315893 625.0104498209664 3816.9830950408787 191 119 110
270.87087908875594 -296.28368652621043 4173.986396509399 221 234 242
-534.6676903827502 596.1941628776875 3790.055552392124 181 107 95
1981.162791267084 635.4284504312996 5286.508995188032 196 115 98
1337.9517438410217 -289.3985631786027 5167.423305616496 201 85 46
1471.4237761975148 -231.20541860824716 6460.876676338522 230 136 111
309.8998294388915 -257.60107072331635 4055.262861391509 183 194 201
1227.3166562993156 -200.45213449147346 6345.474872496655 221 132 111
1299.9405581608016 487.1213069111441 4347.315340190255 165 102 58
1384.2909941622886 -199.3645875262639 6364.600176909446 227 120 83
2135.974399696292 565.0569841962066 5286.48254230481 222 120 88
1257.0742643598687 -175.0206275354295 6257.346208716502 186 94 69
444.6020668138683 -220.6177701442964 4211.787055850162 149 148 145
1240.5925153356443 391.32315229800867 4303.453421390027 143 101 66
787.9319932599996 -235.31634936772394 4276.24131452703 212 223 230
1352.9271873292844 -158.2450012510328 6267.698436116703 186 107 92
1242.1209272882634 356.4386750668509 4314.093750172876 170 113 65
1394.5126140395848 -138.04879998548628 6371.814781477627 222 116 82
327.50908549228063 -196.76165176356898 4051.2778773141904 136 143 146
805.4559877787337 -207.54079628992673 4255.248185111521 213 232 237
-998.0920784754826 -93.5273203209233 4729.731901110145 184 91 74
-1128.4590662375638 -10.162544090552757 4467.510081649451 164 75 54
469.7535762325002 -118.6941614124032 4085.8868739241466 101 89 81
-935.9157872530435 330.96601425735736 4061.658052200067 180 102 88
-927.6936169865829 333.08099652556564 4107.812568568297 147 69 54
1167.7573825177867 174.63571291268465 4270.196447987506 171 121 81
364.3718258086219 -98.55479276927693 3951.0170148464404 93 98 102
2852.389456070915 -38.60717701431797 6031.8953735421555 208 212 222
2616.627972492987 27.03461782208433 6265.210459731876 211 100 61
1181.5838943584947 63.69421443451373 4383.505666509406 129 88 59
2667.9658415057193 152.17424536626632 6176.787423755185 145 99 83
1802.391018976725 170.29143978680415 5883.44047208165 210 121 101
1489.0625713164536 27.261653616110117 4848.56646642585 138 115 95
1645.954078246686 142.86902231014466 5955.491866472487 170 83 67
2671.4106383420526 92.3712256277085 6170.927844370228 209 94 55
-1014.7296007419195 151.96391497939402 4353.846951528675 160 83 66
1153.458006968473 26.6612398850988 4366.974428390769 148 135 117
2474.0442119355885 829.4401545372883 5165.3459817412595 183 92 71
2330.7009620533263 104.01945581487588 6049.77476262778 207 120 102
-494.7704911436236 722.6486781467884 3746.5297043802693 153 81 69
-1034.8910681730918 190.26128423565555 4201.506737115522 159 81 65
1287.1026721051035 -331.8051763202299 6546.098921276661 216 203 202
2231.526594577257 178.0043471237167 6000.571777774217 197 113 97
320.2651144758347 -309.7627498559137 4176.100852555053 132 135 136
245.42031263009693 -266.8108108930577 4055.3521762901746 110 118 119
859.6627749026165 -86.3861432709933 4174.417627569972 92 79 63
1684.204341812842 -180.97353258663028 6465.81265125764 187 109 90
-1068.0119160352524 28.11397200837274 4412.292024993834 197 110 89
2113.509858839888 231.4096338018091 5722.651767728766 207 97 56
1383.7825929245637 -200.9455996794014 5233.26583010033 200 112 94
-1090.859385818716 -99.5895106899361 4658.9031997165175 213 130 113
1650.8834415961246 317.06805316883907 5655.112915816188 145 69 50
1772.2103588555299 322.28824261641597 5667.146742709457 193 107 87
-939.2696200220678 355.09948037651185 4003.0319641290603 167 94 80
-488.8528260250456 588.4391035928278 3766.4095614620514 173 99 87
-545.1578107875429 631.7265366474488 3750.098938810003 191 119 108
-848.017316798094 340.9913727277742 4220.653232195228 189 116 102
-930.6503387212944 250.0979859966577 4075.221029425562 168 94 79
1915.060827795045 447.75536793841616 5608.908724845699 155 72 51
-490.2246925987293 733.5819461588777 3766.994202826139 150 76 64
-498.5750006896949 652.7837579950722 3725.920850122897 171 102 88
2364.219548452967 687.3920574810336 5281.6438587668645 206 99 68
2553.355864651379 317.4489023462047 5789.511521752381 187 89 63
-937.9927457235814 364.629708355031 4045.581084649456 194 122 110
1121.6432893230801 59.62059010966825 4363.015843644616 125 105 83
544.3156177545737 -630.577138087736 5085.229205243672 114 120 118
-492.6127289360484 722.0220442983672 3756.049517661189 151 77 65
842.2966935169493 -452.7568925116278 4717.56312186809 130 135 129
485.3892943627204 -379.79503211747317 4447.643111684337 129 138 133
205.9321623924027 -345.9645360034845 4141.537155625736 233 236 231
2073.461022425023 699.0338015403178 5221.707152804944 209 121 99
-495.3233484323767 635.7577462069488 3780.039833801701 177 106 95
1160.444517242109 -255.54239473647576 6522.1527787058985 182 83 59
2670.059609207358 610.8206440055457 5292.813736285203 200 108 89
1193.670872110057 -213.16604601166623 6531.2874745793015 224 129 103
1263.481383945674 -221.09282552063888 6413.614768428291 180 80 51
853.1114881411011 -252.49764285443342 4749.366848199649 223 228 222
1445.1603473925502 -192.52607367606174 6315.244854384428 211 111 81
-549.831505852317 599.9359669881112 3777.084771392266 190 118 107
1308.8153908001711 -153.784231623609 6419.982507543733 186 107 92
2069.5264268431524 618.3344253223589 5218.105795962289 191 109 89
478.09738885900634 -208.64447833272118 4166.172264725062 132 124 111
319.45557487450367 -199.66375938751878 4088.793856442797 99 106 111
2304.2003909092236 588.4039496780053 5282.152722381192 240 129 94
1979.6678590659483 632.6869234563359 5286.219228850929 197 117 99
1960.5950149476719 -99.99382441060416 6403.037737417185 220 215 220
1301.5250941214103 491.32084060821296 4338.747208601233 133 76 44
490.6218570992182 -143.46963986624036 4058.7219703574183 106 93 84
-544.2984611595857 572.6477444602672 3801.9690287984795 172 98 86
366.3025034546913 -106.4926315045818 3950.0368793937087 105 110 115
497.25348111919834 -74.38218717940256 4007.8094220709586 157 152 144
1244.9459131087829 429.2605157453958 4387.360571799634 237 168 101
1498.7862671096627 1.9704658511556443 4860.166746195357 153 129 104
-1069.1416737144634 130.19339037851418 4424.963561097727 168 91 73
2835.4869885720345 472.48625687833726 5665.308436578428 192 110 94
-1001.445194545098 144.3413435334239 4339.732441476692 160 83 66
1128.5491373767616 32.79122077505323 4363.817709978948 120 101 82
1148.1191051134472 32.35906718411053 4375.0183660515195 130 116 99
2683.9572093936144 104.22583642559631 6027.025189833784 186 118 100
1213.2592865073862 327.96458979679784 4352.779736750633 180 122 76
1787.1667602522461 165.84410969909072 5932.229902405586 210 121 100
1161.6985948378826 96.61465708125516 4386.673985106617 174 133 93
2629.149381293011 378.352014121716 5732.003796984113 165 70 43
2136.608023910699 244.16033317173148 5823.74351778734 211 109 75
1872.671873311201 401.8443912082745 5674.067471153262 218 127 103
1192.8861167089697 132.22863899105764 4325.419615418236 179 121 79
2163.194337714545 290.75078717070426 5688.422267381455 185 88 61
1948.4540332264182 313.55889537895484 5755.957001362125 195 91 63
-959.773612473354 333.9985084843129 4133.7626552647935 150 73 57
-902.4150009251098 345.5760776043181 4041.6656387028547 186 111 97
-903.2510262045662 318.73468237624354 4032.0515045611373 154 77 61
2559.095974178124 321.4845771994408 5829.279425128279 188 89 65
1649.2100487378743 226.36343559701052 4924.716831073087 101 73 57
1900.1592937521082 348.10729137058496 5584.143968330005 169 88 69
2004.393784887171 -28.977912874993066 6298.117997677124 190 107 88
680.4399272819932 -690.0765806303903 5171.094002005175 195 206 214
-957.1913924937602 318.9414949067422 4153.39035029207 168 92 79
1687.3158278531669 12.908367562051252 6223.287574116889 218 100 54
2519.9352600520724 -8.699762620726261 6165.676197387252 166 82 64
2041.9422598120004 551.5039647351239 5286.127537136124 186 100 79
2034.2359361781316 716.2878778562281 5080.469105076108 187 96 71
1096.9658391215971 -304.7584178192347 6639.630465138394 205 114 93
-550.4549676389291 663.6604274040095 3777.2905860538117 172 101 89
1720.4219139105564 496.3294202689138 5174.665307777051 145 84 59
1893.5350370639621 493.18357621095845 5429.376311979842 183 104 87
2564.803245161182 746.7249238962042 5189.96679769138 177 89 71
2344.915470653055 679.2598229456396 5213.946410710621 203 98 67
-398.1859157149316 684.8505989502395 3774.7271642163087 187 116 106
2506.3065487301897 679.4474086770261 5262.888582213883 210 116 94
145.04498268361016 -560.3162313775841 4693.716444161283 125 126 121
2015.7163707576724 694.9450174724086 5118.222540809467 206 112 85
-491.8392592557149 686.130721883443 3835.079288120312 179 106 95
-543.0839621912049 682.0058952549683 3820.3861247507357 155 83 71
837.4661019986777 -466.46468617146877 4889.770993406628 110 120 126
-464.9078686543179 645.4424674210754 3810.976262382289 149 76 62
449.84696234653825 -349.6137576712782 4492.815473942153 57 67 66
1196.082716718604 -309.6675061067443 6571.814054294485 191 100 77
-462.210045618269 628.1415280172899 3820.6405116757205 177 106 91
1209.9080505523764 -270.6344472313917 6577.71355909539 232 133 102
1421.2827557947935 -261.14373552333507 6586.928839954897 201 91 55
1953.7924652376248 640.835752621473 5195.84580368803 173 94 78
2050.3325871446123 634.1988030700322 5292.807084497428 182 103 84
1324.870847724161 -208.50366897946887 6300.941727193058 223 135 113
265.3448021601226 -244.8832144681502 4054.318893648206 89 95 101
-614.466636283414 612.6478103992836 3835.017484690006 190 118 106
345.17069840613385 -245.24281247329372 4041.076524867799 118 128 136
2116.9509878186977 589.7822476805081 5201.636354923719 169 62 30
-542.1766365930206 578.4496660827087 3807.97587332877 167 93 81
829.145382230715 -175.0621146473904 4294.536583426311 120 124 125
1955.825469363626 -102.24202467325105 6427.844806641631 220 215 221
2100.856866715814 -113.06236818723472 6401.3997961874065 222 226 231
489.6855874636475 -164.46654346680785 4071.139362730393 96 82 72
1922.0160493672352 -56.71093549205665 6430.3644486669855 130 33 8
366.50754080435485 -109.5869215966986 3947.2688375827174 105 110 115
2118.201962219023 559.6483095085231 5372.9711675963035 174 60 23
2406.381840016621 515.9877470276796 5438.593387848001 189 97 77
477.67917612459775 -49.23866856587186 3977.097111732918 91 88 88
2602.111431468354 52.82318122687065 6144.520464898854 214 115 88
1884.354001096987 467.442405391007 5717.879835381497 159 72 51
1496.8875461085727 26.871330353474065 4813.636196225364 125 103 82
1608.6790676352455 325.32405152558727 4846.74902052144 92 66 56
2091.339206012933 380.7008398591613 5654.275924790251 179 93 75
1168.5352822360085 43.05207086154121 4511.685485713367 140 101 69
2201.9026248885684 150.8104526334709 6160.31086089782 215 122 98
1112.3662905373203 40.187138846302176 4398.958401156237 125 103 83
1144.6129237753967 66.92059407938413 4417.919305453955 114 85 64
1123.1824638174662 84.86885208572046 4323.2947104060095 144 121 106
1701.456556765749 215.52140426658949 5744.63373098961 216 122 95
1054.1955615526238 106.2854929151133 4380.477505680775 182 154 131
1640.4598795244067 231.98402656869672 4951.920877061891 101 73 57
1128.6158362631847 185.27595671313662 4342.759752801026 153 107 73
1164.494607480489 151.36542182615113 4345.6349513446885 232 165 102
2100.3394789160384 281.90461518192126 5849.687380972589 226 127 96
2110.1881929323335 288.2613003834029 5743.494422477066 186 81 50
1767.0529682553877 313.79490880718635 5644.567256005757 198 112 90
